9200.00 8000.00 -4.33831211e+01
9200.00 8100.00 -3.22429800e+01
9200.00 8200.00 -2.98751965e+01
9200.00 8300.00 -2.57889812e+01
9200.00 8400.00 -1.65515206e+01
9200.00 8500.00 -1.42672655e+01
9200.00 8600.00 -7.05697643e+00
9200.00 8700.00 -4.29472450e+00
9200.00 8800.00 -6.18729290e+00
9200.00 8900.00 -2.62250744e+00
9200.00 9000.00 3.57787550e+00
9200.00 9100.00 -1.23743036e-01
9200.00 9200.00 1.09480047e+00
9200.00 9300.00 -3.77664348e-01
9200.00 9400.00 1.24584439e+00
9200.00 9500.00 2.03502308e+00
9200.00 9600.00 -3.94321133e+00
9200.00 9700.00 -4.79899385e+00
9200.00 9800.00 -1.74201711e+00
9200.00 9900.00 -5.88391478e-01
9200.00 10000.00 -3.65345552e+00
9200.00 10100.00 -1.10870642e+01
9200.00 10200.00 -8.06408480e+00
9200.00 10300.00 -7.57361505e+00
9200.00 10400.00 -8.77412292e+00
9200.00 10500.00 -1.09171430e+01
9200.00 10600.00 -1.47650810e+01
9200.00 10700.00 -6.58826167e+00
9200.00 10800.00 -7.21344987e+00
9200.00 10900.00 -8.33015028e+00
9200.00 11000.00 -1.15704750e+01
9200.00 11100.00 -1.42953725e+01
9200.00 11200.00 -8.89202239e+00
9200.00 11300.00 -1.29903389e+01
9200.00 11400.00 -1.11630062e+01
9200.00 11500.00 -6.83361455e+00
9200.00 11600.00 -7.55371717e+00
9200.00 11700.00 -1.11156543e+01
9200.00 11800.00 -8.99648142e+00
9200.00 11900.00 -1.17846547e+01
9200.00 12000.00 -1.19734662e+01
9300.00   0.00 -2.36841809e+01
9300.00 100.00 -2.76487984e+01
9300.00 200.00 -1.94909508e+01
9300.00 300.00 -2.43881609e+01
9300.00 400.00 -2.89975267e+01
9300.00 500.00 -2.78926610e+01
9300.00 600.00 -2.62402482e+01
9300.00 700.00 -3.06462434e+01
9300.00 800.00 -3.20439344e+01
9300.00 900.00 -3.04805473e+01
9300.00 1000.00 -2.98790943e+01
9300.00 1100.00 -3.30936863e+01
9300.00 1200.00 -3.67632059e+01
9300.00 1300.00 -3.73238691e+01
9300.00 1400.00 -4.05790064e+01
9300.00 1500.00 -4.38676964e+01
9300.00 1600.00 -4.65640566e+01
9300.00 1700.00 -4.91964363e+01
9300.00 1800.00 -5.18427842e+01
9300.00 1900.00 -5.20938986e+01
9300.00 2000.00 -5.96187675e+01
9300.00 2100.00 -5.87165940e+01
9300.00 2200.00 -6.62719802e+01
9300.00 2300.00 -6.66836754e+01
9300.00 2400.00 -7.28342525e+01
9300.00 2500.00 -7.42740542e+01
9300.00 2600.00 -7.63387905e+01
9300.00 2700.00 -8.80297069e+01
9300.00 2800.00 -8.90531799e+01
9300.00 2900.00 -9.22600928e+01
9300.00 3000.00 -9.41874461e+01
9300.00 3100.00 -9.57546984e+01
9300.00 3200.00 -9.97951938e+01
9300.00 3300.00 -9.94641984e+01
9300.00 3400.00 -9.71584129e+01
9300.00 3500.00 -1.00531093e+02
9300.00 3600.00 -1.03021731e+02
9300.00 3700.00 -1.01099797e+02
9300.00 3800.00 -1.00518332e+02
9300.00 3900.00 -1.06969552e+02
9300.00 4000.00 -1.01968304e+02
9300.00 4100.00 -9.51158054e+01
9300.00 4200.00 -9.96950632e+01
9300.00 4300.00 -9.82245723e+01
9300.00 4400.00 -9.29348754e+01
9300.00 4500.00 -9.95114256e+01
9300.00 4600.00 -9.23314046e+01
9300.00 4700.00 -9.44992549e+01
9300.00 4800.00 -9.20267855e+01
9300.00 4900.00 -9.04349414e+01
9300.00 5000.00 -9.25009937e+01
9300.00 5100.00 -9.38182716e+01
9300.00 5200.00 -9.06002433e+01
9300.00 5300.00 -9.35164292e+01
9300.00 5400.00 -9.38390293e+01
9300.00 5500.00 -9.35915200e+01
9300.00 5600.00 -9.39081479e+01
9300.00 5700.00 -9.82981172e+01
9300.00 5800.00 -1.01310445e+02
9300.00 5900.00 -9.80387468e+01
9300.00 6000.00 -9.59816841e+01
9300.00 6100.00 -1.01684218e+02
9300.00 6200.00 -9.84029783e+01
9300.00 6300.00 -9.54143762e+01
9300.00 6400.00 -9.89780977e+01
9300.00 6500.00 -9.68359666e+01
9300.00 6600.00 -9.67748760e+01
9300.00 6700.00 -9.74326865e+01
9300.00 6800.00 -9.50418021e+01
9300.00 6900.00 -9.38286776e+01
9300.00 7000.00 -8.79191479e+01
9300.00 7100.00 -7.89384998e+01
9300.00 7200.00 -7.95375013e+01
9300.00 7300.00 -7.11367026e+01
9300.00 7400.00 -7.34029266e+01
9300.00 7500.00 -6.69389458e+01
9300.00 7600.00 -5.50933688e+01
9300.00 7700.00 -5.85405792e+01
9300.00 7800.00 -5.32312260e+01
9300.00 7900.00 -3.89157243e+01
9300.00 8000.00 -3.71305993e+01
9300.00 8100.00 -3.47826903e+01
9300.00 8200.00 -3.09342234e+01
9300.00 8300.00 -2.37136504e+01
9300.00 8400.00 -2.09260686e+01
9300.00 8500.00 -1.66311828e+01
9300.00 8600.00 -1.08295858e+01
9300.00 8700.00 -7.65506500e+00
9300.00 8800.00 -7.43482141e+00
9300.00 8900.00 -9.35370420e+00
9300.00 9000.00 2.59462308e-01
9300.00 9100.00 -5.47737641e+00
9300.00 9200.00 -9.44634929e+00
9300.00 9300.00 -1.51760739e+00
9300.00 9400.00 -2.79133170e+00
9300.00 9500.00 -5.68208252e+00
9300.00 9600.00 -4.42277886e+00
9300.00 9700.00 -1.73216465e+00
9300.00 9800.00 -5.49025932e+00
9300.00 9900.00 -8.01986138e+00
9300.00 10000.00 -7.55346091e+00
9300.00 10100.00 -1.31623045e+01
9300.00 10200.00 -1.31794243e+01
9300.00 10300.00 -1.24117295e+01
9300.00 10400.00 -1.29869407e+01
9300.00 10500.00 -3.72046998e+00
9300.00 10600.00 -8.62507678e+00
9300.00 10700.00 -7.61437080e+00
9300.00 10800.00 -1.13878538e+01
9300.00 10900.00 -1.27329223e+01
9300.00 11000.00 -8.41196797e+00
9300.00 11100.00 -9.52188634e+00
9300.00 11200.00 -1.18716695e+01
9300.00 11300.00 -1.57192413e+01
9300.00 11400.00 -4.56503160e+00
9300.00 11500.00 -4.65681631e+00
9300.00 11600.00 -1.33545700e+01
9300.00 11700.00 -6.60597014e+00
9300.00 11800.00 -1.08598522e+01
9300.00 11900.00 -1.16290581e+01
9300.00 12000.00 -1.26596118e+01
9400.00   0.00 -2.40799400e+01
9400.00 100.00 -2.31392690e+01
9400.00 200.00 -2.85876920e+01
9400.00 300.00 -2.50918970e+01
9400.00 400.00 -3.07754021e+01
9400.00 500.00 -2.79062903e+01
9400.00 600.00 -3.12275329e+01
9400.00 700.00 -2.60562388e+01
9400.00 800.00 -3.28468809e+01
9400.00 900.00 -3.27618401e+01
9400.00 1000.00 -3.22537136e+01
9400.00 1100.00 -3.55054686e+01
9400.00 1200.00 -3.80936884e+01
9400.00 1300.00 -4.31227926e+01
9400.00 1400.00 -4.09635663e+01
9400.00 1500.00 -3.84691972e+01
9400.00 1600.00 -4.25623018e+01
9400.00 1700.00 -4.92654991e+01
9400.00 1800.00 -4.56240445e+01
9400.00 1900.00 -5.13594315e+01
9400.00 2000.00 -5.17244421e+01
9400.00 2100.00 -5.65666215e+01
9400.00 2200.00 -6.71149969e+01
9400.00 2300.00 -6.73891050e+01
9400.00 2400.00 -6.39658140e+01
9400.00 2500.00 -7.34294575e+01
9400.00 2600.00 -7.89453399e+01
9400.00 2700.00 -8.04399906e+01
9400.00 2800.00 -8.31662414e+01
9400.00 2900.00 -9.00057637e+01
9400.00 3000.00 -8.97455077e+01
9400.00 3100.00 -9.65171784e+01
9400.00 3200.00 -9.67658648e+01
9400.00 3300.00 -9.81804283e+01
9400.00 3400.00 -9.71276368e+01
9400.00 3500.00 -9.31795791e+01
9400.00 3600.00 -9.76567594e+01
9400.00 3700.00 -1.02412337e+02
9400.00 3800.00 -1.04809135e+02
9400.00 3900.00 -1.02229741e+02
9400.00 4000.00 -9.54815490e+01
9400.00 4100.00 -9.77966128e+01
9400.00 4200.00 -1.01739422e+02
9400.00 4300.00 -9.40309041e+01
9400.00 4400.00 -9.93326392e+01
9400.00 4500.00 -9.60667043e+01
9400.00 4600.00 -9.70393535e+01
9400.00 4700.00 -9.42573881e+01
9400.00 4800.00 -9.55306522e+01
9400.00 4900.00 -9.52607252e+01
9400.00 5000.00 -9.50667471e+01
9400.00 5100.00 -8.71941020e+01
9400.00 5200.00 -9.90066874e+01
9400.00 5300.00 -9.08621065e+01
9400.00 5400.00 -9.57668788e+01
9400.00 5500.00 -9.36402451e+01
9400.00 5600.00 -9.30547432e+01
9400.00 5700.00 -1.00931296e+02
9400.00 5800.00 -9.52554108e+01
9400.00 5900.00 -9.85484960e+01
9400.00 6000.00 -1.01013783e+02
9400.00 6100.00 -9.81915915e+01
9400.00 6200.00 -9.81488822e+01
9400.00 6300.00 -9.65380434e+01
9400.00 6400.00 -9.55268325e+01
9400.00 6500.00 -9.65281986e+01
9400.00 6600.00 -9.21997578e+01
9400.00 6700.00 -9.18137576e+01
9400.00 6800.00 -8.70677217e+01
9400.00 6900.00 -8.42749833e+01
9400.00 7000.00 -8.69584146e+01
9400.00 7100.00 -8.31160656e+01
9400.00 7200.00 -7.55476569e+01
9400.00 7300.00 -6.85711954e+01
9400.00 7400.00 -6.59138739e+01
9400.00 7500.00 -6.45143373e+01
9400.00 7600.00 -5.86784236e+01
9400.00 7700.00 -4.95737863e+01
9400.00 7800.00 -5.24936669e+01
9400.00 7900.00 -4.53865923e+01
9400.00 8000.00 -4.25819530e+01
9400.00 8100.00 -3.21800774e+01
9400.00 8200.00 -3.57444841e+01
9400.00 8300.00 -2.98149705e+01
9400.00 8400.00 -2.44304200e+01
9400.00 8500.00 -2.00613381e+01
9400.00 8600.00 -1.86886125e+01
9400.00 8700.00 -1.72239930e+01
9400.00 8800.00 -1.23671489e+01
9400.00 8900.00 -9.93923978e+00
9400.00 9000.00 -1.06295724e+01
9400.00 9100.00 -1.00226254e+01
9400.00 9200.00 -5.21384370e+00
9400.00 9300.00 -3.86138670e+00
9400.00 9400.00 -4.64552263e+00
9400.00 9500.00 -6.63912081e+00
9400.00 9600.00 -8.95654767e+00
9400.00 9700.00 -1.24413503e+01
9400.00 9800.00 -1.11070679e+01
9400.00 9900.00 -1.04818039e+01
9400.00 10000.00 -9.99360920e+00
9400.00 10100.00 -8.83595661e+00
9400.00 10200.00 -9.23258883e+00
9400.00 10300.00 -7.80837590e+00
9400.00 10400.00 -9.40312518e+00
9400.00 10500.00 -1.45546346e+01
9400.00 10600.00 -8.47908217e+00
9400.00 10700.00 -1.38834651e+01
9400.00 10800.00 -1.22250924e+01
9400.00 10900.00 -1.30068289e+01
9400.00 11000.00 -9.09494479e+00
9400.00 11100.00 -1.58940162e+01
9400.00 11200.00 -9.11301205e+00
9400.00 11300.00 -1.28486191e+01
9400.00 11400.00 -1.30980157e+01
9400.00 11500.00 -1.43390401e+01
9400.00 11600.00 -1.27817604e+01
9400.00 11700.00 -1.37820034e+01
9400.00 11800.00 -1.27011132e+01
9400.00 11900.00 -6.59996776e+00
9400.00 12000.00 -1.03288785e+01
9500.00   0.00 -2.55836345e+01
9500.00 100.00 -2.00037251e+01
9500.00 200.00 -2.25019348e+01
9500.00 300.00 -2.40474294e+01
9500.00 400.00 -2.76411173e+01
9500.00 500.00 -2.51632036e+01
9500.00 600.00 -2.99788860e+01
9500.00 700.00 -3.14846019e+01
9500.00 800.00 -3.21436359e+01
9500.00 900.00 -3.29502651e+01
9500.00 1000.00 -3.14615767e+01
9500.00 1100.00 -3.17804270e+01
9500.00 1200.00 -4.15460925e+01
9500.00 1300.00 -3.87436529e+01
9500.00 1400.00 -4.32448744e+01
9500.00 1500.00 -3.75073678e+01
9500.00 1600.00 -3.83218090e+01
9500.00 1700.00 -4.68816747e+01
9500.00 1800.00 -4.48513064e+01
9500.00 1900.00 -4.82673183e+01
9500.00 2000.00 -5.14960853e+01
9500.00 2100.00 -5.30210618e+01
9500.00 2200.00 -5.68735292e+01
9500.00 2300.00 -6.20563152e+01
9500.00 2400.00 -6.88463118e+01
9500.00 2500.00 -6.66534784e+01
9500.00 2600.00 -7.79983280e+01
9500.00 2700.00 -7.92637962e+01
9500.00 2800.00 -8.34687692e+01
9500.00 2900.00 -8.26354120e+01
9500.00 3000.00 -8.47056220e+01
9500.00 3100.00 -8.66154615e+01
9500.00 3200.00 -8.81621042e+01
9500.00 3300.00 -9.77818143e+01
9500.00 3400.00 -9.39641642e+01
9500.00 3500.00 -9.59706755e+01
9500.00 3600.00 -9.85509094e+01
9500.00 3700.00 -9.67513177e+01
9500.00 3800.00 -9.84716936e+01
9500.00 3900.00 -1.01202509e+02
9500.00 4000.00 -9.98683837e+01
9500.00 4100.00 -1.00052258e+02
9500.00 4200.00 -9.94384760e+01
9500.00 4300.00 -9.67037618e+01
9500.00 4400.00 -9.51266822e+01
9500.00 4500.00 -9.78279413e+01
9500.00 4600.00 -9.88027546e+01
9500.00 4700.00 -9.68034079e+01
9500.00 4800.00 -9.15942842e+01
9500.00 4900.00 -9.05427184e+01
9500.00 5000.00 -9.69124319e+01
9500.00 5100.00 -9.18690401e+01
9500.00 5200.00 -9.43434143e+01
9500.00 5300.00 -9.60366831e+01
9500.00 5400.00 -9.30040006e+01
9500.00 5500.00 -9.82788058e+01
9500.00 5600.00 -9.87553831e+01
9500.00 5700.00 -9.63849536e+01
9500.00 5800.00 -1.02289420e+02
9500.00 5900.00 -9.82291206e+01
9500.00 6000.00 -9.98184613e+01
9500.00 6100.00 -1.00970352e+02
9500.00 6200.00 -9.80920474e+01
9500.00 6300.00 -9.49030868e+01
9500.00 6400.00 -9.51353225e+01
9500.00 6500.00 -8.69240590e+01
9500.00 6600.00 -9.23705069e+01
9500.00 6700.00 -9.28054255e+01
9500.00 6800.00 -8.63157632e+01
9500.00 6900.00 -8.42886851e+01
9500.00 7000.00 -8.60792093e+01
9500.00 7100.00 -8.06259852e+01
9500.00 7200.00 -8.00831275e+01
9500.00 7300.00 -7.37378467e+01
9500.00 7400.00 -6.90697694e+01
9500.00 7500.00 -5.72820010e+01
9500.00 7600.00 -5.63747464e+01
9500.00 7700.00 -5.68345570e+01
9500.00 7800.00 -5.29904115e+01
9500.00 7900.00 -4.65885880e+01
9500.00 8000.00 -3.95035644e+01
9500.00 8100.00 -3.12922167e+01
9500.00 8200.00 -3.47251264e+01
9500.00 8300.00 -2.99564503e+01
9500.00 8400.00 -3.06241614e+01
9500.00 8500.00 -1.94220324e+01
9500.00 8600.00 -1.81122486e+01
9500.00 8700.00 -1.44261945e+01
9500.00 8800.00 -1.22704947e+01
9500.00 8900.00 -1.81463629e+01
9500.00 9000.00 -7.34239253e+00
9500.00 9100.00 -9.65743445e+00
9500.00 9200.00 -1.06555066e+01
9500.00 9300.00 -1.00160922e+01
9500.00 9400.00 -5.63906686e+00
9500.00 9500.00 -3.49248049e+00
9500.00 9600.00 -6.27615284e+00
9500.00 9700.00 -4.28970947e+00
9500.00 9800.00 -1.12948089e+01
9500.00 9900.00 -1.43743992e+01
9500.00 10000.00 -1.13883209e+01
9500.00 10100.00 -1.35734267e+01
9500.00 10200.00 -1.38420643e+01
9500.00 10300.00 -1.19074173e+01
9500.00 10400.00 -1.52293452e+01
9500.00 10500.00 -1.36222860e+01
9500.00 10600.00 -1.14062883e+01
9500.00 10700.00 -1.07927076e+01
9500.00 10800.00 -1.33663273e+01
9500.00 10900.00 -1.18322397e+01
9500.00 11000.00 -1.11021821e+01
9500.00 11100.00 -1.19624485e+01
9500.00 11200.00 -8.83821349e+00
9500.00 11300.00 -1.33126937e+01
9500.00 11400.00 -9.29723739e+00
9500.00 11500.00 -6.16456790e+00
9500.00 11600.00 -5.53389476e+00
9500.00 11700.00 -1.16322498e+01
9500.00 11800.00 -8.53957027e+00
9500.00 11900.00 -1.25886526e+01
9500.00 12000.00 -8.27813015e+00
9600.00   0.00 -2.68374950e+01
9600.00 100.00 -2.77875830e+01
9600.00 200.00 -2.63294267e+01
9600.00 300.00 -2.98163214e+01
9600.00 400.00 -2.40771217e+01
9600.00 500.00 -2.62733136e+01
9600.00 600.00 -2.46778067e+01
9600.00 700.00 -2.76979640e+01
9600.00 800.00 -2.78564261e+01
9600.00 900.00 -3.37299340e+01
9600.00 1000.00 -2.97131704e+01
9600.00 1100.00 -3.36182563e+01
9600.00 1200.00 -3.68537957e+01
9600.00 1300.00 -3.32612637e+01
9600.00 1400.00 -3.60183175e+01
9600.00 1500.00 -4.04371261e+01
9600.00 1600.00 -4.10020158e+01
9600.00 1700.00 -4.49049337e+01
9600.00 1800.00 -4.84627495e+01
9600.00 1900.00 -4.78639328e+01
9600.00 2000.00 -5.18831239e+01
9600.00 2100.00 -5.51380270e+01
9600.00 2200.00 -5.62156067e+01
9600.00 2300.00 -6.21637930e+01
9600.00 2400.00 -6.55968527e+01
9600.00 2500.00 -6.39539026e+01
9600.00 2600.00 -7.91905495e+01
9600.00 2700.00 -7.86197279e+01
9600.00 2800.00 -8.33852496e+01
9600.00 2900.00 -7.68567931e+01
9600.00 3000.00 -8.59076005e+01
9600.00 3100.00 -8.26495976e+01
9600.00 3200.00 -8.86332475e+01
9600.00 3300.00 -9.04932141e+01
9600.00 3400.00 -9.52874240e+01
9600.00 3500.00 -9.60030926e+01
9600.00 3600.00 -9.39279240e+01
9600.00 3700.00 -9.60770059e+01
9600.00 3800.00 -8.87765498e+01
9600.00 3900.00 -9.81283332e+01
9600.00 4000.00 -9.09256279e+01
9600.00 4100.00 -9.35601840e+01
9600.00 4200.00 -9.54937524e+01
9600.00 4300.00 -9.71202006e+01
9600.00 4400.00 -9.58802616e+01
9600.00 4500.00 -9.52259420e+01
9600.00 4600.00 -9.66905921e+01
9600.00 4700.00 -8.80793679e+01
9600.00 4800.00 -9.44174440e+01
9600.00 4900.00 -9.53288043e+01
9600.00 5000.00 -9.16826476e+01
9600.00 5100.00 -9.16656167e+01
9600.00 5200.00 -9.57729358e+01
9600.00 5300.00 -9.33792765e+01
9600.00 5400.00 -9.16014316e+01
9600.00 5500.00 -8.89322086e+01
9600.00 5600.00 -9.39116478e+01
9600.00 5700.00 -9.05462153e+01
9600.00 5800.00 -9.79832905e+01
9600.00 5900.00 -9.46013398e+01
9600.00 6000.00 -9.28901503e+01
9600.00 6100.00 -1.00057121e+02
9600.00 6200.00 -9.21125029e+01
9600.00 6300.00 -9.39293895e+01
9600.00 6400.00 -9.45037019e+01
9600.00 6500.00 -8.69292544e+01
9600.00 6600.00 -8.81424025e+01
9600.00 6700.00 -8.95603947e+01
9600.00 6800.00 -8.65959017e+01
9600.00 6900.00 -8.74674991e+01
9600.00 7000.00 -8.38116170e+01
9600.00 7100.00 -7.39666581e+01
9600.00 7200.00 -6.87590849e+01
9600.00 7300.00 -6.84723411e+01
9600.00 7400.00 -6.84556498e+01
9600.00 7500.00 -6.07679677e+01
9600.00 7600.00 -5.85972759e+01
9600.00 7700.00 -5.44956800e+01
9600.00 7800.00 -4.53564128e+01
9600.00 7900.00 -3.84592164e+01
9600.00 8000.00 -3.95864536e+01
9600.00 8100.00 -3.40159552e+01
9600.00 8200.00 -3.54421643e+01
9600.00 8300.00 -3.10219566e+01
9600.00 8400.00 -2.81779348e+01
9600.00 8500.00 -2.05329974e+01
9600.00 8600.00 -2.28662073e+01
9600.00 8700.00 -1.89948068e+01
9600.00 8800.00 -1.50663084e+01
9600.00 8900.00 -1.60781526e+01
9600.00 9000.00 -1.59647828e+01
9600.00 9100.00 -1.28447658e+01
9600.00 9200.00 -1.35506311e+01
9600.00 9300.00 -1.26453005e+01
9600.00 9400.00 -8.40121585e+00
9600.00 9500.00 -1.11524273e+01
9600.00 9600.00 -8.51431023e+00
9600.00 9700.00 -1.48140341e+01
9600.00 9800.00 -1.12993549e+01
9600.00 9900.00 -1.46677793e+01
9600.00 10000.00 -1.12533858e+01
9600.00 10100.00 -1.46474763e+01
9600.00 10200.00 -1.04453622e+01
9600.00 10300.00 -9.03963323e+00
9600.00 10400.00 -1.26510551e+01
9600.00 10500.00 -1.09639074e+01
9600.00 10600.00 -8.96807147e+00
9600.00 10700.00 -9.50466599e+00
9600.00 10800.00 -1.11800795e+01
9600.00 10900.00 -1.59569827e+01
9600.00 11000.00 -1.24164691e+01
9600.00 11100.00 -1.67044663e+01
9600.00 11200.00 -1.19676358e+01
9600.00 11300.00 -8.24340269e+00
9600.00 11400.00 -9.25803423e+00
9600.00 11500.00 -3.52785580e+00
9600.00 11600.00 -1.08351716e+01
9600.00 11700.00 -8.09400326e+00
9600.00 11800.00 -9.62482954e+00
9600.00 11900.00 -1.24282782e+01
9600.00 12000.00 -9.48055907e+00
9700.00   0.00 -2.33307622e+01
9700.00 100.00 -2.51124570e+01
9700.00 200.00 -2.50164947e+01
9700.00 300.00 -2.47232543e+01
9700.00 400.00 -1.75062894e+01
9700.00 500.00 -2.74998738e+01
9700.00 600.00 -2.89563457e+01
9700.00 700.00 -3.00920073e+01
9700.00 800.00 -2.91328520e+01
9700.00 900.00 -2.70184420e+01
9700.00 1000.00 -3.48359168e+01
9700.00 1100.00 -3.98317475e+01
9700.00 1200.00 -3.44588342e+01
9700.00 1300.00 -3.28471251e+01
9700.00 1400.00 -4.41529063e+01
9700.00 1500.00 -3.67508687e+01
9700.00 1600.00 -3.71920207e+01
9700.00 1700.00 -4.22148334e+01
9700.00 1800.00 -5.04164495e+01
9700.00 1900.00 -4.70684761e+01
9700.00 2000.00 -4.80316494e+01
9700.00 2100.00 -5.00342808e+01
9700.00 2200.00 -5.34367176e+01
9700.00 2300.00 -5.67284052e+01
9700.00 2400.00 -5.92599723e+01
9700.00 2500.00 -6.97144363e+01
9700.00 2600.00 -6.71271827e+01
9700.00 2700.00 -7.86160566e+01
9700.00 2800.00 -7.66026482e+01
9700.00 2900.00 -7.85809772e+01
9700.00 3000.00 -7.87763434e+01
9700.00 3100.00 -8.67477104e+01
9700.00 3200.00 -8.51913032e+01
9700.00 3300.00 -8.33837521e+01
9700.00 3400.00 -8.73063350e+01
9700.00 3500.00 -8.72850791e+01
9700.00 3600.00 -9.03348191e+01
9700.00 3700.00 -9.25546650e+01
9700.00 3800.00 -8.84178543e+01
9700.00 3900.00 -8.98358088e+01
9700.00 4000.00 -8.85842051e+01
9700.00 4100.00 -9.29797798e+01
9700.00 4200.00 -9.14146384e+01
9700.00 4300.00 -8.83845850e+01
9700.00 4400.00 -9.41418438e+01
9700.00 4500.00 -8.91894596e+01
9700.00 4600.00 -8.91481989e+01
9700.00 4700.00 -8.57866159e+01
9700.00 4800.00 -8.43624270e+01
9700.00 4900.00 -8.60665328e+01
9700.00 5000.00 -9.29104227e+01
9700.00 5100.00 -9.43431585e+01
9700.00 5200.00 -9.35498715e+01
9700.00 5300.00 -8.77626229e+01
9700.00 5400.00 -9.14917178e+01
9700.00 5500.00 -9.32065317e+01
9700.00 5600.00 -9.08423701e+01
9700.00 5700.00 -9.07200012e+01
9700.00 5800.00 -9.43545313e+01
9700.00 5900.00 -9.03494718e+01
9700.00 6000.00 -9.33610454e+01
9700.00 6100.00 -9.23251628e+01
9700.00 6200.00 -8.68962681e+01
9700.00 6300.00 -9.03533703e+01
9700.00 6400.00 -8.99808373e+01
9700.00 6500.00 -8.26607925e+01
9700.00 6600.00 -8.27336295e+01
9700.00 6700.00 -8.29035658e+01
9700.00 6800.00 -8.14635690e+01
9700.00 6900.00 -8.28552927e+01
9700.00 7000.00 -7.97945588e+01
9700.00 7100.00 -7.28307987e+01
9700.00 7200.00 -7.17183938e+01
9700.00 7300.00 -6.98260341e+01
9700.00 7400.00 -5.83580451e+01
9700.00 7500.00 -6.16360299e+01
9700.00 7600.00 -5.74679813e+01
9700.00 7700.00 -5.27160730e+01
9700.00 7800.00 -5.41047869e+01
9700.00 7900.00 -4.20678456e+01
9700.00 8000.00 -3.70555780e+01
9700.00 8100.00 -3.52681695e+01
9700.00 8200.00 -3.71445294e+01
9700.00 8300.00 -3.43492173e+01
9700.00 8400.00 -2.55513860e+01
9700.00 8500.00 -2.72557327e+01
9700.00 8600.00 -1.97020296e+01
9700.00 8700.00 -2.39818239e+01
9700.00 8800.00 -1.71933486e+01
9700.00 8900.00 -1.97245469e+01
9700.00 9000.00 -1.70644871e+01
9700.00 9100.00 -1.63619164e+01
9700.00 9200.00 -1.00443131e+01
9700.00 9300.00 -1.07665155e+01
9700.00 9400.00 -1.21160327e+01
9700.00 9500.00 -8.74683874e+00
9700.00 9600.00 -1.49940739e+01
9700.00 9700.00 -1.70551179e+01
9700.00 9800.00 -1.08534561e+01
9700.00 9900.00 -1.18817278e+01
9700.00 10000.00 -1.18267026e+01
9700.00 10100.00 -1.46288286e+01
9700.00 10200.00 -9.93080720e+00
9700.00 10300.00 -1.04816060e+01
9700.00 10400.00 -1.56204521e+01
9700.00 10500.00 -1.19048978e+01
9700.00 10600.00 -8.24805673e+00
9700.00 10700.00 -1.18657367e+01
9700.00 10800.00 -5.71433517e+00
9700.00 10900.00 -1.11681974e+01
9700.00 11000.00 -1.19447149e+01
9700.00 11100.00 -1.47558142e+01
9700.00 11200.00 -1.08881672e+01
9700.00 11300.00 -9.08290737e+00
9700.00 11400.00 -5.23671904e+00
9700.00 11500.00 -1.27581862e+01
9700.00 11600.00 -1.08674055e+01
9700.00 11700.00 -9.86393712e+00
9700.00 11800.00 -8.94243978e+00
9700.00 11900.00 -8.48425342e+00
9700.00 12000.00 -5.29973874e+00
9800.00   0.00 -1.93082060e+01
9800.00 100.00 -2.36900312e+01
9800.00 200.00 -1.60285965e+01
9800.00 300.00 -2.52861317e+01
9800.00 400.00 -2.33742256e+01
9800.00 500.00 -2.12425037e+01
9800.00 600.00 -2.20101582e+01
9800.00 700.00 -3.03501760e+01
9800.00 800.00 -2.90272300e+01
9800.00 900.00 -3.18690652e+01
9800.00 1000.00 -3.12460371e+01
9800.00 1100.00 -3.25474836e+01
9800.00 1200.00 -3.70692597e+01
9800.00 1300.00 -3.37733119e+01
9800.00 1400.00 -3.51647779e+01
9800.00 1500.00 -3.85308687e+01
9800.00 1600.00 -4.09752178e+01
9800.00 1700.00 -4.25258449e+01
9800.00 1800.00 -4.98905906e+01
9800.00 1900.00 -4.90911205e+01
9800.00 2000.00 -5.07134506e+01
9800.00 2100.00 -5.02808136e+01
9800.00 2200.00 -5.29323244e+01
9800.00 2300.00 -5.78998082e+01
9800.00 2400.00 -5.84315364e+01
9800.00 2500.00 -6.29306134e+01
9800.00 2600.00 -6.47290960e+01
9800.00 2700.00 -7.05566797e+01
9800.00 2800.00 -7.31151148e+01
9800.00 2900.00 -7.41980543e+01
9800.00 3000.00 -7.81326162e+01
9800.00 3100.00 -7.71147861e+01
9800.00 3200.00 -8.36159940e+01
9800.00 3300.00 -8.19589686e+01
9800.00 3400.00 -8.49011756e+01
9800.00 3500.00 -8.42321507e+01
9800.00 3600.00 -8.86677268e+01
9800.00 3700.00 -8.46428394e+01
9800.00 3800.00 -9.42665269e+01
9800.00 3900.00 -8.97077401e+01
9800.00 4000.00 -8.17607028e+01
9800.00 4100.00 -8.33005605e+01
9800.00 4200.00 -8.78173815e+01
9800.00 4300.00 -9.08049128e+01
9800.00 4400.00 -8.94439477e+01
9800.00 4500.00 -8.95495868e+01
9800.00 4600.00 -8.58023422e+01
9800.00 4700.00 -8.25190995e+01
9800.00 4800.00 -8.74329285e+01
9800.00 4900.00 -8.70678238e+01
9800.00 5000.00 -8.72859306e+01
9800.00 5100.00 -8.32313148e+01
9800.00 5200.00 -8.75999409e+01
9800.00 5300.00 -8.59441330e+01
9800.00 5400.00 -8.97695882e+01
9800.00 5500.00 -8.48734050e+01
9800.00 5600.00 -9.05714849e+01
9800.00 5700.00 -8.57221934e+01
9800.00 5800.00 -8.96415863e+01
9800.00 5900.00 -7.79169832e+01
9800.00 6000.00 -8.58600250e+01
9800.00 6100.00 -8.85131800e+01
9800.00 6200.00 -8.62522429e+01
9800.00 6300.00 -8.13668672e+01
9800.00 6400.00 -8.41141198e+01
9800.00 6500.00 -8.75797341e+01
9800.00 6600.00 -7.95861699e+01
9800.00 6700.00 -8.09862912e+01
9800.00 6800.00 -8.13980850e+01
9800.00 6900.00 -7.27334427e+01
9800.00 7000.00 -7.39038578e+01
9800.00 7100.00 -7.49076962e+01
9800.00 7200.00 -6.41897977e+01
9800.00 7300.00 -6.23931729e+01
9800.00 7400.00 -6.56010990e+01
9800.00 7500.00 -5.72239976e+01
9800.00 7600.00 -5.16014365e+01
9800.00 7700.00 -5.20786186e+01
9800.00 7800.00 -4.50661562e+01
9800.00 7900.00 -4.31326492e+01
9800.00 8000.00 -4.01900331e+01
9800.00 8100.00 -3.95378542e+01
9800.00 8200.00 -2.99169326e+01
9800.00 8300.00 -2.97248643e+01
9800.00 8400.00 -2.87051514e+01
9800.00 8500.00 -2.56628229e+01
9800.00 8600.00 -1.99860171e+01
9800.00 8700.00 -2.26727369e+01
9800.00 8800.00 -2.21653358e+01
9800.00 8900.00 -1.74502486e+01
9800.00 9000.00 -1.46624826e+01
9800.00 9100.00 -1.72394997e+01
9800.00 9200.00 -1.89353368e+01
9800.00 9300.00 -1.94926067e+01
9800.00 9400.00 -1.73225637e+01
9800.00 9500.00 -9.32482919e+00
9800.00 9600.00 -1.05831829e+01
9800.00 9700.00 -1.65133775e+01
9800.00 9800.00 -1.35240106e+01
9800.00 9900.00 -1.19428233e+01
9800.00 10000.00 -1.45779331e+01
9800.00 10100.00 -1.16209033e+01
9800.00 10200.00 -1.44865699e+01
9800.00 10300.00 -1.54923382e+01
9800.00 10400.00 -1.49339115e+01
9800.00 10500.00 -1.03199281e+01
9800.00 10600.00 -1.31637785e+01
9800.00 10700.00 -1.28853169e+01
9800.00 10800.00 -1.17479069e+01
9800.00 10900.00 -1.42701882e+01
9800.00 11000.00 -1.28619905e+01
9800.00 11100.00 -9.28514223e+00
9800.00 11200.00 -8.14765823e+00
9800.00 11300.00 -1.08897613e+01
9800.00 11400.00 -9.96453972e+00
9800.00 11500.00 -1.26431845e+01
9800.00 11600.00 -1.16164795e+01
9800.00 11700.00 -1.12116555e+01
9800.00 11800.00 -8.36478290e+00
9800.00 11900.00 -1.03717684e+01
9800.00 12000.00 -6.20262475e+00
9900.00   0.00 -2.38789459e+01
9900.00 100.00 -2.08368907e+01
9900.00 200.00 -2.43114562e+01
9900.00 300.00 -2.31981834e+01
9900.00 400.00 -2.37724285e+01
9900.00 500.00 -3.11248746e+01
9900.00 600.00 -2.65256010e+01
9900.00 700.00 -2.88864995e+01
9900.00 800.00 -2.23231480e+01
9900.00 900.00 -2.60353147e+01
9900.00 1000.00 -3.06351923e+01
9900.00 1100.00 -3.30255485e+01
9900.00 1200.00 -3.32695832e+01
9900.00 1300.00 -3.33211609e+01
9900.00 1400.00 -3.25343171e+01
9900.00 1500.00 -3.72416135e+01
9900.00 1600.00 -3.62314533e+01
9900.00 1700.00 -4.12341426e+01
9900.00 1800.00 -3.89839555e+01
9900.00 1900.00 -4.55945291e+01
9900.00 2000.00 -4.97073757e+01
9900.00 2100.00 -4.57034579e+01
9900.00 2200.00 -4.89337265e+01
9900.00 2300.00 -5.59563858e+01
9900.00 2400.00 -5.92485434e+01
9900.00 2500.00 -5.68511548e+01
9900.00 2600.00 -6.48508463e+01
9900.00 2700.00 -6.64131967e+01
9900.00 2800.00 -6.63616937e+01
9900.00 2900.00 -7.19621419e+01
9900.00 3000.00 -7.68767475e+01
9900.00 3100.00 -7.67583182e+01
9900.00 3200.00 -7.42604221e+01
9900.00 3300.00 -8.09349575e+01
9900.00 3400.00 -7.68333836e+01
9900.00 3500.00 -8.15175150e+01
9900.00 3600.00 -8.46369081e+01
9900.00 3700.00 -8.50721867e+01
9900.00 3800.00 -8.04391340e+01
9900.00 3900.00 -8.24640063e+01
9900.00 4000.00 -8.29012818e+01
9900.00 4100.00 -8.80615441e+01
9900.00 4200.00 -8.04958183e+01
9900.00 4300.00 -8.42766435e+01
9900.00 4400.00 -8.26595161e+01
9900.00 4500.00 -7.99227191e+01
9900.00 4600.00 -8.69585248e+01
9900.00 4700.00 -8.22952612e+01
9900.00 4800.00 -8.71980349e+01
9900.00 4900.00 -8.87969256e+01
9900.00 5000.00 -7.95597114e+01
9900.00 5100.00 -8.29765546e+01
9900.00 5200.00 -8.19429731e+01
9900.00 5300.00 -8.60348539e+01
9900.00 5400.00 -8.21568073e+01
9900.00 5500.00 -8.54073783e+01
9900.00 5600.00 -8.17436063e+01
9900.00 5700.00 -8.55115652e+01
9900.00 5800.00 -8.18407055e+01
9900.00 5900.00 -7.49278796e+01
9900.00 6000.00 -8.00094308e+01
9900.00 6100.00 -8.32992261e+01
9900.00 6200.00 -8.20826812e+01
9900.00 6300.00 -8.50506687e+01
9900.00 6400.00 -7.95653843e+01
9900.00 6500.00 -7.58455709e+01
9900.00 6600.00 -7.43646573e+01
9900.00 6700.00 -7.80796806e+01
9900.00 6800.00 -7.36007290e+01
9900.00 6900.00 -7.19192641e+01
9900.00 7000.00 -7.05148001e+01
9900.00 7100.00 -7.02803445e+01
9900.00 7200.00 -6.76116061e+01
9900.00 7300.00 -6.24804583e+01
9900.00 7400.00 -6.03201305e+01
9900.00 7500.00 -5.67525319e+01
9900.00 7600.00 -5.03612711e+01
9900.00 7700.00 -4.62954191e+01
9900.00 7800.00 -4.51440156e+01
9900.00 7900.00 -4.09680600e+01
9900.00 8000.00 -3.53659944e+01
9900.00 8100.00 -3.78504656e+01
9900.00 8200.00 -3.25481769e+01
9900.00 8300.00 -2.97504494e+01
9900.00 8400.00 -2.95948985e+01
9900.00 8500.00 -2.74299412e+01
9900.00 8600.00 -2.48238294e+01
9900.00 8700.00 -2.50906393e+01
9900.00 8800.00 -1.70727029e+01
9900.00 8900.00 -1.97846014e+01
9900.00 9000.00 -2.07012530e+01
9900.00 9100.00 -1.83590558e+01
9900.00 9200.00 -1.23812839e+01
9900.00 9300.00 -2.08985813e+01
9900.00 9400.00 -1.37213333e+01
9900.00 9500.00 -1.22946239e+01
9900.00 9600.00 -1.21983405e+01
9900.00 9700.00 -1.79079084e+01
9900.00 9800.00 -8.59507195e+00
9900.00 9900.00 -1.43300537e+01
9900.00 10000.00 -1.24114367e+01
9900.00 10100.00 -1.48013813e+01
9900.00 10200.00 -1.29820193e+01
9900.00 10300.00 -1.65725674e+01
9900.00 10400.00 -1.35209698e+01
9900.00 10500.00 -1.45928174e+01
9900.00 10600.00 -1.29010737e+01
9900.00 10700.00 -1.09708182e+01
9900.00 10800.00 -1.15872468e+01
9900.00 10900.00 -8.85878437e+00
9900.00 11000.00 -1.10795979e+01
9900.00 11100.00 -1.89750043e+01
9900.00 11200.00 -1.24070170e+01
9900.00 11300.00 -7.61799428e+00
9900.00 11400.00 -7.61537189e+00
9900.00 11500.00 -4.75054252e+00
9900.00 11600.00 -1.23294099e+01
9900.00 11700.00 -6.19099984e+00
9900.00 11800.00 -9.32714564e+00
9900.00 11900.00 -7.59784741e+00
9900.00 12000.00 -8.51313253e+00
10000.00   0.00 -1.93559162e+01
10000.00 100.00 -2.06545573e+01
10000.00 200.00 -2.33026227e+01
10000.00 300.00 -2.96115921e+01
10000.00 400.00 -2.71798270e+01
10000.00 500.00 -2.89113012e+01
10000.00 600.00 -2.67649433e+01
10000.00 700.00 -3.33703833e+01
10000.00 800.00 -2.63354311e+01
10000.00 900.00 -2.56025521e+01
10000.00 1000.00 -3.37264109e+01
10000.00 1100.00 -3.09725678e+01
10000.00 1200.00 -3.33078425e+01
10000.00 1300.00 -3.45017489e+01
10000.00 1400.00 -3.22364799e+01
10000.00 1500.00 -3.66234020e+01
10000.00 1600.00 -3.91682601e+01
10000.00 1700.00 -4.23362111e+01
10000.00 1800.00 -4.06728623e+01
10000.00 1900.00 -4.20462247e+01
10000.00 2000.00 -4.46372419e+01
10000.00 2100.00 -4.61572347e+01
10000.00 2200.00 -4.74822700e+01
10000.00 2300.00 -4.92343638e+01
10000.00 2400.00 -5.66129279e+01
10000.00 2500.00 -5.75412757e+01
10000.00 2600.00 -5.93154905e+01
10000.00 2700.00 -6.31333008e+01
10000.00 2800.00 -6.47375841e+01
10000.00 2900.00 -7.08106767e+01
10000.00 3000.00 -6.80424597e+01
10000.00 3100.00 -7.29036561e+01
10000.00 3200.00 -7.35211773e+01
10000.00 3300.00 -6.87434188e+01
10000.00 3400.00 -7.56490481e+01
10000.00 3500.00 -7.54932070e+01
10000.00 3600.00 -8.42135663e+01
10000.00 3700.00 -7.52800228e+01
10000.00 3800.00 -7.37627015e+01
10000.00 3900.00 -8.20461296e+01
10000.00 4000.00 -7.96908842e+01
10000.00 4100.00 -8.13814787e+01
10000.00 4200.00 -8.51199896e+01
10000.00 4300.00 -8.33358026e+01
10000.00 4400.00 -7.95978245e+01
10000.00 4500.00 -7.93843730e+01
10000.00 4600.00 -7.74190418e+01
10000.00 4700.00 -8.02997335e+01
10000.00 4800.00 -8.02014442e+01
10000.00 4900.00 -7.47474380e+01
10000.00 5000.00 -8.12040152e+01
10000.00 5100.00 -8.13787591e+01
10000.00 5200.00 -7.75872433e+01
10000.00 5300.00 -7.73951174e+01
10000.00 5400.00 -7.90390182e+01
10000.00 5500.00 -7.88274832e+01
10000.00 5600.00 -8.07300783e+01
10000.00 5700.00 -7.51568213e+01
10000.00 5800.00 -7.78626396e+01
10000.00 5900.00 -7.60402356e+01
10000.00 6000.00 -7.46334713e+01
10000.00 6100.00 -7.53535669e+01
10000.00 6200.00 -8.27245524e+01
10000.00 6300.00 -7.30392068e+01
10000.00 6400.00 -7.68192563e+01
10000.00 6500.00 -7.40179910e+01
10000.00 6600.00 -7.26618825e+01
10000.00 6700.00 -7.67037761e+01
10000.00 6800.00 -6.59644209e+01
10000.00 6900.00 -6.76832359e+01
10000.00 7000.00 -6.46108571e+01
10000.00 7100.00 -6.47954292e+01
10000.00 7200.00 -6.04355989e+01
10000.00 7300.00 -5.92735438e+01
10000.00 7400.00 -5.69533916e+01
10000.00 7500.00 -4.99655720e+01
10000.00 7600.00 -4.99575745e+01
10000.00 7700.00 -4.97361000e+01
10000.00 7800.00 -4.19967247e+01
10000.00 7900.00 -4.29947447e+01
10000.00 8000.00 -3.98911033e+01
10000.00 8100.00 -3.72113891e+01
10000.00 8200.00 -3.01075909e+01
10000.00 8300.00 -3.06751010e+01
10000.00 8400.00 -3.21645456e+01
10000.00 8500.00 -2.79765210e+01
10000.00 8600.00 -2.35381693e+01
10000.00 8700.00 -2.40662327e+01
10000.00 8800.00 -2.34164317e+01
10000.00 8900.00 -2.67697718e+01
10000.00 9000.00 -2.28550426e+01
10000.00 9100.00 -1.84286353e+01
10000.00 9200.00 -2.26467516e+01
10000.00 9300.00 -1.80832357e+01
10000.00 9400.00 -1.75327091e+01
10000.00 9500.00 -1.74718138e+01
10000.00 9600.00 -1.77301971e+01
10000.00 9700.00 -1.22310350e+01
10000.00 9800.00 -1.91094522e+01
10000.00 9900.00 -1.18931390e+01
10000.00 10000.00 -1.45252344e+01
10000.00 10100.00 -1.41868673e+01
10000.00 10200.00 -1.13647246e+01
10000.00 10300.00 -1.15272501e+01
10000.00 10400.00 -3.79621496e+00
10000.00 10500.00 -1.64755911e+01
10000.00 10600.00 -1.00194516e+01
10000.00 10700.00 -8.93177704e+00
10000.00 10800.00 -9.89432857e+00
10000.00 10900.00 -1.10465932e+01
10000.00 11000.00 -9.64847952e+00
10000.00 11100.00 -1.91535267e+01
10000.00 11200.00 -8.75060007e+00
10000.00 11300.00 -9.72844948e+00
10000.00 11400.00 -7.91403360e+00
10000.00 11500.00 -1.13342968e+01
10000.00 11600.00 -9.99287125e+00
10000.00 11700.00 -1.01981084e+01
10000.00 11800.00 -1.39655958e+01
10000.00 11900.00 -4.92582766e+00
10000.00 12000.00 -1.52068904e+01
10100.00   0.00 -2.00862546e+01
10100.00 100.00 -2.30384019e+01
10100.00 200.00 -1.95093718e+01
10100.00 300.00 -2.21667046e+01
10100.00 400.00 -2.93647480e+01
10100.00 500.00 -2.00667335e+01
10100.00 600.00 -2.70121691e+01
10100.00 700.00 -2.98872850e+01
10100.00 800.00 -2.89259908e+01
10100.00 900.00 -2.59986871e+01
10100.00 1000.00 -2.97812237e+01
10100.00 1100.00 -3.78303948e+01
10100.00 1200.00 -2.69244611e+01
10100.00 1300.00 -3.32460946e+01
10100.00 1400.00 -3.07613800e+01
10100.00 1500.00 -3.18771835e+01
10100.00 1600.00 -3.51200548e+01
10100.00 1700.00 -3.77204607e+01
10100.00 1800.00 -3.55792072e+01
10100.00 1900.00 -4.55254993e+01
10100.00 2000.00 -4.52053968e+01
10100.00 2100.00 -4.90315611e+01
10100.00 2200.00 -4.88810110e+01
10100.00 2300.00 -5.40874091e+01
10100.00 2400.00 -4.85112151e+01
10100.00 2500.00 -5.42891789e+01
10100.00 2600.00 -5.57081575e+01
10100.00 2700.00 -5.78650760e+01
10100.00 2800.00 -5.69348290e+01
10100.00 2900.00 -6.55859915e+01
10100.00 3000.00 -6.94311849e+01
10100.00 3100.00 -7.02217160e+01
10100.00 3200.00 -6.68555371e+01
10100.00 3300.00 -6.91445144e+01
10100.00 3400.00 -6.98982984e+01
10100.00 3500.00 -7.09702899e+01
10100.00 3600.00 -7.32332155e+01
10100.00 3700.00 -7.79425074e+01
10100.00 3800.00 -7.30018163e+01
10100.00 3900.00 -6.94212007e+01
10100.00 4000.00 -7.77120109e+01
10100.00 4100.00 -7.16985483e+01
10100.00 4200.00 -7.08283640e+01
10100.00 4300.00 -7.72703125e+01
10100.00 4400.00 -7.50093699e+01
10100.00 4500.00 -7.42071072e+01
10100.00 4600.00 -7.18103662e+01
10100.00 4700.00 -7.17936328e+01
10100.00 4800.00 -7.45107079e+01
10100.00 4900.00 -7.44412329e+01
10100.00 5000.00 -7.63272123e+01
10100.00 5100.00 -7.41830075e+01
10100.00 5200.00 -7.97116433e+01
10100.00 5300.00 -7.31008568e+01
10100.00 5400.00 -6.79487719e+01
10100.00 5500.00 -7.12065700e+01
10100.00 5600.00 -7.85370950e+01
10100.00 5700.00 -7.03960818e+01
10100.00 5800.00 -7.86151735e+01
10100.00 5900.00 -6.99460174e+01
10100.00 6000.00 -7.30223974e+01
10100.00 6100.00 -7.69625209e+01
10100.00 6200.00 -7.52646516e+01
10100.00 6300.00 -7.08691557e+01
10100.00 6400.00 -6.78832350e+01
10100.00 6500.00 -7.18798205e+01
10100.00 6600.00 -7.17922843e+01
10100.00 6700.00 -6.92264097e+01
10100.00 6800.00 -6.37936106e+01
10100.00 6900.00 -6.17420420e+01
10100.00 7000.00 -6.22685612e+01
10100.00 7100.00 -5.63430127e+01
10100.00 7200.00 -5.85977025e+01
10100.00 7300.00 -5.40294202e+01
10100.00 7400.00 -5.58808537e+01
10100.00 7500.00 -4.96091079e+01
10100.00 7600.00 -4.69287547e+01
10100.00 7700.00 -4.61333890e+01
10100.00 7800.00 -4.31947869e+01
10100.00 7900.00 -3.77517972e+01
10100.00 8000.00 -3.46597539e+01
10100.00 8100.00 -3.83188078e+01
10100.00 8200.00 -3.43795217e+01
10100.00 8300.00 -2.68965797e+01
10100.00 8400.00 -2.71953375e+01
10100.00 8500.00 -2.13538283e+01
10100.00 8600.00 -2.64818882e+01
10100.00 8700.00 -2.44397538e+01
10100.00 8800.00 -2.31048829e+01
10100.00 8900.00 -2.16930108e+01
10100.00 9000.00 -1.68007015e+01
10100.00 9100.00 -1.61129707e+01
10100.00 9200.00 -6.50225170e+00
10100.00 9300.00 -1.35500805e+01
10100.00 9400.00 -2.27520170e+01
10100.00 9500.00 -1.80083499e+01
10100.00 9600.00 -1.48215261e+01
10100.00 9700.00 -1.71531506e+01
10100.00 9800.00 -1.56574326e+01
10100.00 9900.00 -1.46123220e+01
10100.00 10000.00 -1.52880509e+01
10100.00 10100.00 -1.88742714e+01
10100.00 10200.00 -1.33465924e+01
10100.00 10300.00 -1.59453540e+01
10100.00 10400.00 -1.20189093e+01
10100.00 10500.00 -1.97855043e+01
10100.00 10600.00 -1.19688771e+01
10100.00 10700.00 -1.26367597e+01
10100.00 10800.00 -1.08667895e+01
10100.00 10900.00 -1.31949894e+01
10100.00 11000.00 -1.45637808e+01
10100.00 11100.00 -1.16881975e+01
10100.00 11200.00 -1.03510674e+01
10100.00 11300.00 -1.33273383e+01
10100.00 11400.00 -1.36842486e+01
10100.00 11500.00 -1.16041526e+01
10100.00 11600.00 -1.49894547e+01
10100.00 11700.00 -1.51365827e+01
10100.00 11800.00 -1.50888622e+01
10100.00 11900.00 -8.58715148e+00
10100.00 12000.00 -8.80406717e+00
10200.00   0.00 -1.96604752e+01
10200.00 100.00 -1.12867884e+01
10200.00 200.00 -1.99120733e+01
10200.00 300.00 -2.01134238e+01
10200.00 400.00 -2.32328288e+01
10200.00 500.00 -2.81169300e+01
10200.00 600.00 -2.05853575e+01
10200.00 700.00 -2.18701789e+01
10200.00 800.00 -2.48192590e+01
10200.00 900.00 -3.28804165e+01
10200.00 1000.00 -2.61159254e+01
10200.00 1100.00 -2.81734831e+01
10200.00 1200.00 -2.41612498e+01
10200.00 1300.00 -3.12377947e+01
10200.00 1400.00 -3.46278050e+01
10200.00 1500.00 -3.66360030e+01
10200.00 1600.00 -3.62050518e+01
10200.00 1700.00 -3.80468585e+01
10200.00 1800.00 -3.52698978e+01
10200.00 1900.00 -3.35299137e+01
10200.00 2000.00 -4.52260398e+01
10200.00 2100.00 -4.41169679e+01
10200.00 2200.00 -4.61359372e+01
10200.00 2300.00 -5.26797735e+01
10200.00 2400.00 -4.92102439e+01
10200.00 2500.00 -5.33119499e+01
10200.00 2600.00 -5.57504208e+01
10200.00 2700.00 -5.26801421e+01
10200.00 2800.00 -5.60838561e+01
10200.00 2900.00 -6.17990295e+01
10200.00 3000.00 -5.88467400e+01
10200.00 3100.00 -6.38143068e+01
10200.00 3200.00 -6.58106283e+01
10200.00 3300.00 -6.52269270e+01
10200.00 3400.00 -6.90788393e+01
10200.00 3500.00 -6.82098035e+01
10200.00 3600.00 -6.92789123e+01
10200.00 3700.00 -6.92502820e+01
10200.00 3800.00 -6.93227272e+01
10200.00 3900.00 -6.37867634e+01
10200.00 4000.00 -6.75698491e+01
10200.00 4100.00 -7.14479917e+01
10200.00 4200.00 -6.75703392e+01
10200.00 4300.00 -6.80546430e+01
10200.00 4400.00 -6.77825037e+01
10200.00 4500.00 -7.04204298e+01
10200.00 4600.00 -7.44196054e+01
10200.00 4700.00 -6.88182211e+01
10200.00 4800.00 -6.95306524e+01
10200.00 4900.00 -7.33828542e+01
10200.00 5000.00 -6.51522858e+01
10200.00 5100.00 -7.14270361e+01
10200.00 5200.00 -6.79894918e+01
10200.00 5300.00 -7.31871187e+01
10200.00 5400.00 -6.61697363e+01
10200.00 5500.00 -7.08232572e+01
10200.00 5600.00 -7.14020404e+01
10200.00 5700.00 -6.72499982e+01
10200.00 5800.00 -7.00815365e+01
10200.00 5900.00 -6.42276901e+01
10200.00 6000.00 -6.34492490e+01
10200.00 6100.00 -6.78553730e+01
10200.00 6200.00 -6.05491860e+01
10200.00 6300.00 -6.86516621e+01
10200.00 6400.00 -6.85448279e+01
10200.00 6500.00 -6.88868971e+01
10200.00 6600.00 -6.77463708e+01
10200.00 6700.00 -6.18241833e+01
10200.00 6800.00 -6.28767940e+01
10200.00 6900.00 -5.80467917e+01
10200.00 7000.00 -5.76967901e+01
10200.00 7100.00 -5.85543343e+01
10200.00 7200.00 -5.60270191e+01
10200.00 7300.00 -5.50419993e+01
10200.00 7400.00 -4.96974725e+01
10200.00 7500.00 -4.85755158e+01
10200.00 7600.00 -4.30929371e+01
10200.00 7700.00 -5.16755086e+01
10200.00 7800.00 -3.54667518e+01
10200.00 7900.00 -4.16360633e+01
10200.00 8000.00 -3.39121447e+01
10200.00 8100.00 -3.95260245e+01
10200.00 8200.00 -3.03999941e+01
10200.00 8300.00 -3.38884604e+01
10200.00 8400.00 -2.20284697e+01
10200.00 8500.00 -2.69682370e+01
10200.00 8600.00 -2.52574514e+01
10200.00 8700.00 -2.63861505e+01
10200.00 8800.00 -2.38949162e+01
10200.00 8900.00 -2.15068225e+01
10200.00 9000.00 -2.04416409e+01
10200.00 9100.00 -2.00209370e+01
10200.00 9200.00 -2.24512592e+01
10200.00 9300.00 -2.12025106e+01
10200.00 9400.00 -1.59350333e+01
10200.00 9500.00 -1.53276227e+01
10200.00 9600.00 -1.84025270e+01
10200.00 9700.00 -1.05668323e+01
10200.00 9800.00 -1.49846550e+01
10200.00 9900.00 -1.04706957e+01
10200.00 10000.00 -1.62603264e+01
10200.00 10100.00 -9.35301922e+00
10200.00 10200.00 -1.28645007e+01
10200.00 10300.00 -1.14264968e+01
10200.00 10400.00 -1.66410230e+01
10200.00 10500.00 -1.24809498e+01
10200.00 10600.00 -7.08820355e+00
10200.00 10700.00 -1.21239615e+01
10200.00 10800.00 -1.17053996e+01
10200.00 10900.00 -9.00584812e+00
10200.00 11000.00 -9.43804917e+00
10200.00 11100.00 -1.14602960e+01
10200.00 11200.00 -1.01232338e+01
10200.00 11300.00 -8.63675756e+00
10200.00 11400.00 -1.05030157e+01
10200.00 11500.00 -1.32090643e+01
10200.00 11600.00 -6.82730888e+00
10200.00 11700.00 -9.21184363e+00
10200.00 11800.00 -9.45059837e+00
10200.00 11900.00 -6.19389902e+00
10200.00 12000.00 -1.43271143e+01
10300.00   0.00 -1.59967201e+01
10300.00 100.00 -1.96075498e+01
10300.00 200.00 -1.93288028e+01
10300.00 300.00 -1.87510852e+01
10300.00 400.00 -2.67567777e+01
10300.00 500.00 -1.74793229e+01
10300.00 600.00 -2.41636035e+01
10300.00 700.00 -3.10999279e+01
10300.00 800.00 -3.01785923e+01
10300.00 900.00 -2.27827054e+01
10300.00 1000.00 -2.68620326e+01
10300.00 1100.00 -2.85384349e+01
10300.00 1200.00 -2.85549015e+01
10300.00 1300.00 -3.33391838e+01
10300.00 1400.00 -3.06815297e+01
10300.00 1500.00 -3.44073518e+01
10300.00 1600.00 -3.34995331e+01
10300.00 1700.00 -3.10425558e+01
10300.00 1800.00 -3.52436331e+01
10300.00 1900.00 -3.45529966e+01
10300.00 2000.00 -3.67914343e+01
10300.00 2100.00 -4.15419667e+01
10300.00 2200.00 -4.40679437e+01
10300.00 2300.00 -4.33733814e+01
10300.00 2400.00 -5.06014926e+01
10300.00 2500.00 -4.95229255e+01
10300.00 2600.00 -4.94642877e+01
10300.00 2700.00 -5.12116131e+01
10300.00 2800.00 -5.62279052e+01
10300.00 2900.00 -5.54151552e+01
10300.00 3000.00 -5.74887115e+01
10300.00 3100.00 -6.21245339e+01
10300.00 3200.00 -6.26260560e+01
10300.00 3300.00 -6.23081684e+01
10300.00 3400.00 -5.89642693e+01
10300.00 3500.00 -6.07716371e+01
10300.00 3600.00 -5.97831247e+01
10300.00 3700.00 -6.16705465e+01
10300.00 3800.00 -6.37520932e+01
10300.00 3900.00 -6.50631190e+01
10300.00 4000.00 -6.49303995e+01
10300.00 4100.00 -6.20817162e+01
10300.00 4200.00 -6.52744664e+01
10300.00 4300.00 -6.32933818e+01
10300.00 4400.00 -6.64375495e+01
10300.00 4500.00 -7.23914726e+01
10300.00 4600.00 -6.73792968e+01
10300.00 4700.00 -6.61210761e+01
10300.00 4800.00 -6.83968934e+01
10300.00 4900.00 -6.66122743e+01
10300.00 5000.00 -7.07319463e+01
10300.00 5100.00 -6.83055929e+01
10300.00 5200.00 -6.85940823e+01
10300.00 5300.00 -6.68666351e+01
10300.00 5400.00 -6.47828908e+01
10300.00 5500.00 -6.43294606e+01
10300.00 5600.00 -6.27725867e+01
10300.00 5700.00 -6.26507220e+01
10300.00 5800.00 -6.64887461e+01
10300.00 5900.00 -6.05256118e+01
10300.00 6000.00 -6.42284061e+01
10300.00 6100.00 -6.68290514e+01
10300.00 6200.00 -6.61303585e+01
10300.00 6300.00 -6.55061847e+01
10300.00 6400.00 -6.56881143e+01
10300.00 6500.00 -5.74528746e+01
10300.00 6600.00 -6.09175902e+01
10300.00 6700.00 -5.61756916e+01
10300.00 6800.00 -5.92979701e+01
10300.00 6900.00 -5.23920535e+01
10300.00 7000.00 -5.39741961e+01
10300.00 7100.00 -5.60163576e+01
10300.00 7200.00 -4.92646256e+01
10300.00 7300.00 -4.79094144e+01
10300.00 7400.00 -5.20647329e+01
10300.00 7500.00 -4.95059106e+01
10300.00 7600.00 -4.30029006e+01
10300.00 7700.00 -4.32845736e+01
10300.00 7800.00 -4.06910437e+01
10300.00 7900.00 -3.50149614e+01
10300.00 8000.00 -3.44088216e+01
10300.00 8100.00 -3.04055890e+01
10300.00 8200.00 -3.07993806e+01
10300.00 8300.00 -2.58028657e+01
10300.00 8400.00 -2.93786541e+01
10300.00 8500.00 -2.64693763e+01
10300.00 8600.00 -2.56435740e+01
10300.00 8700.00 -2.37642118e+01
10300.00 8800.00 -2.60327002e+01
10300.00 8900.00 -1.98037899e+01
10300.00 9000.00 -2.25739643e+01
10300.00 9100.00 -2.26932441e+01
10300.00 9200.00 -1.16385610e+01
10300.00 9300.00 -2.11337760e+01
10300.00 9400.00 -2.40291654e+01
10300.00 9500.00 -1.76799086e+01
10300.00 9600.00 -1.87835471e+01
10300.00 9700.00 -1.05995977e+01
10300.00 9800.00 -1.38366788e+01
10300.00 9900.00 -1.40649950e+01
10300.00 10000.00 -1.56055843e+01
10300.00 10100.00 -1.42434442e+01
10300.00 10200.00 -1.88886861e+01
10300.00 10300.00 -1.52722589e+01
10300.00 10400.00 -9.94159432e+00
10300.00 10500.00 -1.62067323e+01
10300.00 10600.00 -1.47127180e+01
10300.00 10700.00 -1.07584522e+01
10300.00 10800.00 -1.10411378e+01
10300.00 10900.00 -9.45153059e+00
10300.00 11000.00 -8.77849147e+00
10300.00 11100.00 -1.21245938e+01
10300.00 11200.00 -4.17171343e+00
10300.00 11300.00 -1.10948953e+01
10300.00 11400.00 -7.94364011e+00
10300.00 11500.00 -1.06280005e+01
10300.00 11600.00 -9.27881278e+00
10300.00 11700.00 -1.39451470e+01
10300.00 11800.00 -8.52140903e+00
10300.00 11900.00 -1.02149364e+01
10300.00 12000.00 -1.33768094e+01
10400.00   0.00 -1.82685856e+01
10400.00 100.00 -2.62976148e+01
10400.00 200.00 -1.92449053e+01
10400.00 300.00 -1.81202184e+01
10400.00 400.00 -2.34929149e+01
10400.00 500.00 -2.12454569e+01
10400.00 600.00 -2.23321962e+01
10400.00 700.00 -2.59460828e+01
10400.00 800.00 -2.46367892e+01
10400.00 900.00 -2.91421871e+01
10400.00 1000.00 -2.47179398e+01
10400.00 1100.00 -2.48525903e+01
10400.00 1200.00 -2.87266990e+01
10400.00 1300.00 -3.12051756e+01
10400.00 1400.00 -2.51280887e+01
10400.00 1500.00 -3.68838684e+01
10400.00 1600.00 -2.90657705e+01
10400.00 1700.00 -3.19000598e+01
10400.00 1800.00 -3.25523603e+01
10400.00 1900.00 -3.34255324e+01
10400.00 2000.00 -4.57840943e+01
10400.00 2100.00 -3.87956910e+01
10400.00 2200.00 -4.16020151e+01
10400.00 2300.00 -4.32236696e+01
10400.00 2400.00 -4.70488062e+01
10400.00 2500.00 -5.12629975e+01
10400.00 2600.00 -5.10210412e+01
10400.00 2700.00 -4.87783833e+01
10400.00 2800.00 -5.11722324e+01
10400.00 2900.00 -5.10706649e+01
10400.00 3000.00 -5.18278869e+01
10400.00 3100.00 -5.84276869e+01
10400.00 3200.00 -5.63923819e+01
10400.00 3300.00 -5.58949477e+01
10400.00 3400.00 -6.05741953e+01
10400.00 3500.00 -5.48324695e+01
10400.00 3600.00 -5.71838131e+01
10400.00 3700.00 -6.13703080e+01
10400.00 3800.00 -6.05441130e+01
10400.00 3900.00 -5.94751534e+01
10400.00 4000.00 -6.34815589e+01
10400.00 4100.00 -6.72979219e+01
10400.00 4200.00 -6.09357466e+01
10400.00 4300.00 -6.21511345e+01
10400.00 4400.00 -6.59511144e+01
10400.00 4500.00 -5.87092604e+01
10400.00 4600.00 -6.11760422e+01
10400.00 4700.00 -6.28553394e+01
10400.00 4800.00 -6.10973696e+01
10400.00 4900.00 -6.24290607e+01
10400.00 5000.00 -6.44187169e+01
10400.00 5100.00 -6.75103459e+01
10400.00 5200.00 -6.37663951e+01
10400.00 5300.00 -6.14501672e+01
10400.00 5400.00 -6.51201471e+01
10400.00 5500.00 -6.50503970e+01
10400.00 5600.00 -5.80867539e+01
10400.00 5700.00 -5.97586539e+01
10400.00 5800.00 -5.93512483e+01
10400.00 5900.00 -6.71925384e+01
10400.00 6000.00 -6.22233065e+01
10400.00 6100.00 -5.67090920e+01
