2100.000 5100.000     -83.972615 
2100.000 5200.000     -84.010036 
2100.000 5300.000     -84.068824 
2100.000 5400.000     -84.138690 
2100.000 5500.000     -84.206172 
2100.000 5600.000     -84.255519 
2100.000 5700.000     -84.269674 
2100.000 5800.000     -84.231214 
2100.000 5900.000     -84.123109 
2100.000 6000.000     -83.929194 
2100.000 6100.000     -83.634359 
2100.000 6200.000     -83.224481 
2100.000 6300.000     -82.686170 
2100.000 6400.000     -82.006384 
2100.000 6500.000     -81.171966 
2100.000 6600.000     -80.169113 
2100.000 6700.000     -78.982798 
2100.000 6800.000     -77.596140 
2100.000 6900.000     -75.989776 
2100.000 7000.000     -74.141398 
2100.000 7100.000     -72.026025 
2100.000 7200.000     -69.618665 
2100.000 7300.000     -66.903622 
2100.000 7400.000     -63.898376 
2100.000 7500.000     -60.691734 
2100.000 7600.000     -57.450262 
2100.000 7700.000     -54.340554 
2100.000 7800.000     -51.451498 
2100.000 7900.000     -48.800730 
2100.000 8000.000     -46.372805 
2100.000 8100.000     -44.143114 
2100.000 8200.000     -42.087246 
2100.000 8300.000     -40.183719 
2100.000 8400.000     -38.414334 
2100.000 8500.000     -36.763838 
2100.000 8600.000     -35.219426 
2100.000 8700.000     -33.770295 
2100.000 8800.000     -32.407255 
2100.000 8900.000     -31.122432 
2100.000 9000.000     -29.909022 
2100.000 9100.000     -28.761100 
2100.000 9200.000     -27.673476 
2100.000 9300.000     -26.641566 
2100.000 9400.000     -25.661302 
2100.000 9500.000     -24.729051 
2100.000 9600.000     -23.841552 
2100.000 9700.000     -22.995866 
2100.000 9800.000     -22.189327 
2100.000 9900.000     -21.419514 
2100.000 10000.000     -20.684215 
2100.000 10100.000     -19.981403 
2100.000 10200.000     -19.309215 
2100.000 10300.000     -18.665936 
2100.000 10400.000     -18.049977 
2100.000 10500.000     -17.459869 
2100.000 10600.000     -16.894246 
2100.000 10700.000     -16.351836 
2100.000 10800.000     -15.831453 
2100.000 10900.000     -15.331989 
2100.000 11000.000     -14.852408 
2100.000 11100.000     -14.391737 
2100.000 11200.000     -13.949064 
2100.000 11300.000     -13.523530 
2100.000 11400.000     -13.114328 
2100.000 11500.000     -12.720697 
2100.000 11600.000     -12.341920 
2100.000 11700.000     -11.977319 
2100.000 11800.000     -11.626255 
2100.000 11900.000     -11.288120 
2100.000 12000.000     -10.962343 
2200.000   0.000     -21.376009 
2200.000 100.000     -22.134303 
2200.000 200.000     -22.928380 
2200.000 300.000     -23.760602 
2200.000 400.000     -24.633570 
2200.000 500.000     -25.550152 
2200.000 600.000     -26.513531 
2200.000 700.000     -27.527250 
2200.000 800.000     -28.595275 
2200.000 900.000     -29.722071 
2200.000 1000.000     -30.912695 
2200.000 1100.000     -32.172908 
2200.000 1200.000     -33.509323 
2200.000 1300.000     -34.929588 
2200.000 1400.000     -36.442623 
2200.000 1500.000     -38.058919 
2200.000 1600.000     -39.790926 
2200.000 1700.000     -41.653549 
2200.000 1800.000     -43.664756 
2200.000 1900.000     -45.846265 
2200.000 2000.000     -48.224121 
2200.000 2100.000     -50.828487 
2200.000 2200.000     -53.690630 
2200.000 2300.000     -56.831819 
2200.000 2400.000     -60.234348 
2200.000 2500.000     -63.795156 
2200.000 2600.000     -67.317888 
2200.000 2700.000     -70.606188 
2200.000 2800.000     -73.556996 
2200.000 2900.000     -76.152628 
2200.000 3000.000     -78.414412 
2200.000 3100.000     -80.373760 
2200.000 3200.000     -82.061112 
2200.000 3300.000     -83.502999 
2200.000 3400.000     -84.721939 
2200.000 3500.000     -85.737136 
2200.000 3600.000     -86.565347 
2200.000 3700.000     -87.221711 
2200.000 3800.000     -87.720512 
2200.000 3900.000     -88.075901 
2200.000 4000.000     -88.302558 
2200.000 4100.000     -88.416290 
2200.000 4200.000     -88.434500 
2200.000 4300.000     -88.376419 
2200.000 4400.000     -88.262971 
2200.000 4500.000     -88.116174 
2200.000 4600.000     -87.958062 
2200.000 4700.000     -87.809272 
2200.000 4800.000     -87.687573 
2200.000 4900.000     -87.606573 
2200.000 5000.000     -87.574796 
2200.000 5100.000     -87.595140 
2200.000 5200.000     -87.664715 
2200.000 5300.000     -87.775007 
2200.000 5400.000     -87.912414 
2200.000 5500.000     -88.059178 
2200.000 5600.000     -88.194670 
2200.000 5700.000     -88.296866 
2200.000 5800.000     -88.343758 
2200.000 5900.000     -88.314431 
2200.000 6000.000     -88.189664 
2200.000 6100.000     -87.952066 
2200.000 6200.000     -87.585841 
2200.000 6300.000     -87.076321 
2200.000 6400.000     -86.409369 
2200.000 6500.000     -85.570710 
2200.000 6600.000     -84.545222 
2200.000 6700.000     -83.316161 
2200.000 6800.000     -81.864336 
2200.000 6900.000     -80.167245 
2200.000 7000.000     -78.198373 
2200.000 7100.000     -75.927293 
2200.000 7200.000     -73.322612 
2200.000 7300.000     -70.363015 
2200.000 7400.000     -67.066203 
2200.000 7500.000     -63.535252 
2200.000 7600.000     -59.966534 
2200.000 7700.000     -56.556418 
2200.000 7800.000     -53.407982 
2200.000 7900.000     -50.538945 
2200.000 8000.000     -47.928053 
2200.000 8100.000     -45.544051 
2200.000 8200.000     -43.356788 
2200.000 8300.000     -41.340232 
2200.000 8400.000     -39.472673 
2200.000 8500.000     -37.736151 
2200.000 8600.000     -36.115770 
2200.000 8700.000     -34.599085 
2200.000 8800.000     -33.175609 
2200.000 8900.000     -31.836425 
2200.000 9000.000     -30.573885 
2200.000 9100.000     -29.381376 
2200.000 9200.000     -28.253133 
2200.000 9300.000     -27.184097 
2200.000 9400.000     -26.169796 
2200.000 9500.000     -25.206255 
2200.000 9600.000     -24.289924 
2200.000 9700.000     -23.417609 
2200.000 9800.000     -22.586428 
2200.000 9900.000     -21.793771 
2200.000 10000.000     -21.037257 
2200.000 10100.000     -20.314715 
2200.000 10200.000     -19.624152 
2200.000 10300.000     -18.963736 
2200.000 10400.000     -18.331777 
2200.000 10500.000     -17.726713 
2200.000 10600.000     -17.147095 
2200.000 10700.000     -16.591576 
2200.000 10800.000     -16.058905 
2200.000 10900.000     -15.547910 
2200.000 11000.000     -15.057500 
2200.000 11100.000     -14.586651 
2200.000 11200.000     -14.134405 
2200.000 11300.000     -13.699860 
2200.000 11400.000     -13.282172 
2200.000 11500.000     -12.880542 
2200.000 11600.000     -12.494220 
2200.000 11700.000     -12.122499 
2200.000 11800.000     -11.764710 
2200.000 11900.000     -11.420222 
2200.000 12000.000     -11.088438 
2300.000   0.000     -21.743443 
2300.000 100.000     -22.522902 
2300.000 200.000     -23.339716 
2300.000 300.000     -24.196411 
2300.000 400.000     -25.095768 
2300.000 500.000     -26.040864 
2300.000 600.000     -27.035124 
2300.000 700.000     -28.082369 
2300.000 800.000     -29.186893 
2300.000 900.000     -30.353543 
2300.000 1000.000     -31.587829 
2300.000 1100.000     -32.896050 
2300.000 1200.000     -34.285470 
2300.000 1300.000     -35.764520 
2300.000 1400.000     -37.343079 
2300.000 1500.000     -39.032820 
2300.000 1600.000     -40.847663 
2300.000 1700.000     -42.804348 
2300.000 1800.000     -44.923151 
2300.000 1900.000     -47.228678 
2300.000 2000.000     -49.750512 
2300.000 2100.000     -52.522932 
2300.000 2200.000     -55.581353 
2300.000 2300.000     -58.949580 
2300.000 2400.000     -62.607442 
2300.000 2500.000     -66.440391 
2300.000 2600.000     -70.232104 
2300.000 2700.000     -73.766220 
2300.000 2800.000     -76.928089 
2300.000 2900.000     -79.697384 
2300.000 3000.000     -82.097724 
2300.000 3100.000     -84.164341 
2300.000 3200.000     -85.931390 
2300.000 3300.000     -87.428465 
2300.000 3400.000     -88.680416 
2300.000 3500.000     -89.708144 
2300.000 3600.000     -90.529594 
2300.000 3700.000     -91.160732 
2300.000 3800.000     -91.616472 
2300.000 3900.000     -91.911587 
2300.000 4000.000     -92.061611 
2300.000 4100.000     -92.083739 
2300.000 4200.000     -91.997644 
2300.000 4300.000     -91.826031 
2300.000 4400.000     -91.594689 
2300.000 4500.000     -91.331769 
2300.000 4600.000     -91.066204 
2300.000 4700.000     -90.825508 
2300.000 4800.000     -90.633474 
2300.000 4900.000     -90.508271 
2300.000 5000.000     -90.461218 
2300.000 5100.000     -90.496149 
2300.000 5200.000     -90.609238 
2300.000 5300.000     -90.789176 
2300.000 5400.000     -91.017800 
2300.000 5500.000     -91.271328 
2300.000 5600.000     -91.522256 
2300.000 5700.000     -91.741658 
2300.000 5800.000     -91.901395 
2300.000 5900.000     -91.975688 
2300.000 6000.000     -91.941841 
2300.000 6100.000     -91.780195 
2300.000 6200.000     -91.473565 
2300.000 6300.000     -91.006430 
2300.000 6400.000     -90.364032 
2300.000 6500.000     -89.531468 
2300.000 6600.000     -88.492788 
2300.000 6700.000     -87.230061 
2300.000 6800.000     -85.722403 
2300.000 6900.000     -83.944979 
2300.000 7000.000     -81.868212 
2300.000 7100.000     -79.457964 
2300.000 7200.000     -76.679019 
2300.000 7300.000     -73.507777 
2300.000 7400.000     -69.964582 
2300.000 7500.000     -66.164102 
2300.000 7600.000     -62.322715 
2300.000 7700.000     -58.656761 
2300.000 7800.000     -55.280806 
2300.000 7900.000     -52.215036 
2300.000 8000.000     -49.435662 
2300.000 8100.000     -46.907283 
2300.000 8200.000     -44.595636 
2300.000 8300.000     -42.471147 
2300.000 8400.000     -40.509223 
2300.000 8500.000     -38.689600 
2300.000 8600.000     -36.995542 
2300.000 8700.000     -35.413138 
2300.000 8800.000     -33.930719 
2300.000 8900.000     -32.538411 
2300.000 9000.000     -31.227780 
2300.000 9100.000     -29.991565 
2300.000 9200.000     -28.823461 
2300.000 9300.000     -27.717956 
2300.000 9400.000     -26.670195 
2300.000 9500.000     -25.675876 
2300.000 9600.000     -24.731167 
2300.000 9700.000     -23.832632 
2300.000 9800.000     -22.977181 
2300.000 9900.000     -22.162016 
2300.000 10000.000     -21.384597 
2300.000 10100.000     -20.642610 
2300.000 10200.000     -19.933934 
2300.000 10300.000     -19.256627 
2300.000 10400.000     -18.608897 
2300.000 10500.000     -17.989092 
2300.000 10600.000     -17.395680 
2300.000 10700.000     -16.827244 
2300.000 10800.000     -16.282463 
2300.000 10900.000     -15.760108 
2300.000 11000.000     -15.259030 
2300.000 11100.000     -14.778157 
2300.000 11200.000     -14.316483 
2300.000 11300.000     -13.873067 
2300.000 11400.000     -13.447024 
2300.000 11500.000     -13.037521 
2300.000 11600.000     -12.643775 
2300.000 11700.000     -12.265049 
2300.000 11800.000     -11.900646 
2300.000 11900.000     -11.549910 
2300.000 12000.000     -11.212220 
2400.000   0.000     -22.105844 
2400.000 100.000     -22.906117 
2400.000 200.000     -23.745280 
2400.000 300.000     -24.626009 
2400.000 400.000     -25.551261 
2400.000 500.000     -26.524313 
2400.000 600.000     -27.548817 
2400.000 700.000     -28.628859 
2400.000 800.000     -29.769038 
2400.000 900.000     -30.974560 
2400.000 1000.000     -32.251352 
2400.000 1100.000     -33.606213 
2400.000 1200.000     -35.046994 
2400.000 1300.000     -36.582833 
2400.000 1400.000     -38.224459 
2400.000 1500.000     -39.984574 
2400.000 1600.000     -41.878346 
2400.000 1700.000     -43.924034 
2400.000 1800.000     -46.143743 
2400.000 1900.000     -48.564246 
2400.000 2000.000     -51.217589 
2400.000 2100.000     -54.140583 
2400.000 2200.000     -57.370651 
2400.000 2300.000     -60.931856 
2400.000 2400.000     -64.800650 
2400.000 2500.000     -68.853933 
2400.000 2600.000     -72.862624 
2400.000 2700.000     -76.597563 
2400.000 2800.000     -79.935418 
2400.000 2900.000     -82.852268 
2400.000 3000.000     -85.371676 
2400.000 3100.000     -87.530471 
2400.000 3200.000     -89.364820 
2400.000 3300.000     -90.906141 
2400.000 3400.000     -92.180694 
2400.000 3500.000     -93.210327 
2400.000 3600.000     -94.013505 
2400.000 3700.000     -94.606363 
2400.000 3800.000     -95.003754 
2400.000 3900.000     -95.220334 
2400.000 4000.000     -95.271739 
2400.000 4100.000     -95.175900 
2400.000 4200.000     -94.954410 
2400.000 4300.000     -94.633724 
2400.000 4400.000     -94.245706 
2400.000 4500.000     -93.826896 
2400.000 4600.000     -93.416131 
2400.000 4700.000     -93.050912 
2400.000 4800.000     -92.763611 
2400.000 4900.000     -92.578657 
2400.000 5000.000     -92.511043 
2400.000 5100.000     -92.565800 
2400.000 5200.000     -92.737905 
2400.000 5300.000     -93.012374 
2400.000 5400.000     -93.364787 
2400.000 5500.000     -93.762780 
2400.000 5600.000     -94.168863 
2400.000 5700.000     -94.544206 
2400.000 5800.000     -94.852282 
2400.000 5900.000     -95.061236 
2400.000 6000.000     -95.144624 
2400.000 6100.000     -95.080865 
2400.000 6200.000     -94.852043 
2400.000 6300.000     -94.442531 
2400.000 6400.000     -93.837690 
2400.000 6500.000     -93.022681 
2400.000 6600.000     -91.981384 
2400.000 6700.000     -90.695350 
2400.000 6800.000     -89.142749 
2400.000 6900.000     -87.297337 
2400.000 7000.000     -85.127715 
2400.000 7100.000     -82.597735 
2400.000 7200.000     -79.670585 
2400.000 7300.000     -76.322723 
2400.000 7400.000     -72.578089 
2400.000 7500.000     -68.560036 
2400.000 7600.000     -64.497741 
2400.000 7700.000     -60.620305 
2400.000 7800.000     -57.050848 
2400.000 7900.000     -53.812935 
2400.000 8000.000     -50.882521 
2400.000 8100.000     -48.222199 
2400.000 8200.000     -45.795175 
2400.000 8300.000     -43.569415 
2400.000 8400.000     -41.518161 
2400.000 8500.000     -39.619318 
2400.000 8600.000     -37.854636 
2400.000 8700.000     -36.208954 
2400.000 8800.000     -34.669577 
2400.000 8900.000     -33.225780 
2400.000 9000.000     -31.868424 
2400.000 9100.000     -30.589658 
2400.000 9200.000     -29.382681 
2400.000 9300.000     -28.241559 
2400.000 9400.000     -27.161080 
2400.000 9500.000     -26.136635 
2400.000 9600.000     -25.164126 
2400.000 9700.000     -24.239888 
2400.000 9800.000     -23.360629 
2400.000 9900.000     -22.523377 
2400.000 10000.000     -21.725436 
2400.000 10100.000     -20.964353 
2400.000 10200.000     -20.237887 
2400.000 10300.000     -19.543986 
2400.000 10400.000     -18.880762 
2400.000 10500.000     -18.246472 
2400.000 10600.000     -17.639509 
2400.000 10700.000     -17.058380 
2400.000 10800.000     -16.501702 
2400.000 10900.000     -15.968186 
2400.000 11000.000     -15.456629 
2400.000 11100.000     -14.965910 
2400.000 11200.000     -14.494979 
2400.000 11300.000     -14.042852 
2400.000 11400.000     -13.608606 
2400.000 11500.000     -13.191375 
2400.000 11600.000     -12.790343 
2400.000 11700.000     -12.404742 
2400.000 11800.000     -12.033850 
2400.000 11900.000     -11.676984 
2400.000 12000.000     -11.333501 
2500.000   0.000     -22.462555 
2500.000 100.000     -23.283226 
2500.000 200.000     -24.144272 
2500.000 300.000     -25.048514 
2500.000 400.000     -25.999071 
2500.000 500.000     -26.999410 
2500.000 600.000     -28.053393 
2500.000 700.000     -29.165353 
2500.000 800.000     -30.340170 
2500.000 900.000     -31.583377 
2500.000 1000.000     -32.901283 
2500.000 1100.000     -34.301128 
2500.000 1200.000     -35.791286 
2500.000 1300.000     -37.381511 
2500.000 1400.000     -39.083257 
2500.000 1500.000     -40.910085 
2500.000 1600.000     -42.878173 
2500.000 1700.000     -45.006963 
2500.000 1800.000     -47.319914 
2500.000 1900.000     -49.845295 
2500.000 2000.000     -52.616680 
2500.000 2100.000     -55.672185 
2500.000 2200.000     -59.049833 
2500.000 2300.000     -62.772792 
2500.000 2400.000     -66.814218 
2500.000 2500.000     -71.044850 
2500.000 2600.000     -75.227353 
2500.000 2700.000     -79.124264 
2500.000 2800.000     -82.605936 
2500.000 2900.000     -85.644889 
2500.000 3000.000     -88.263416 
2500.000 3100.000     -90.498438 
2500.000 3200.000     -92.386781 
2500.000 3300.000     -93.960580 
2500.000 3400.000     -95.246599 
2500.000 3500.000     -96.266842 
2500.000 3600.000     -97.039535 
2500.000 3700.000     -97.580184 
2500.000 3800.000     -97.902669 
2500.000 3900.000     -98.020460 
2500.000 4000.000     -97.948075 
2500.000 4100.000     -97.702900 
2500.000 4200.000     -97.307416 
2500.000 4300.000     -96.791610 
2500.000 4400.000     -96.194757 
2500.000 4500.000     -95.565149 
2500.000 4600.000     -94.956457 
2500.000 4700.000     -94.421246 
2500.000 4800.000     -94.004298 
2500.000 4900.000     -93.738412 
2500.000 5000.000     -93.643096 
2500.000 5100.000     -93.724770 
2500.000 5200.000     -93.977023 
2500.000 5300.000     -94.380355 
2500.000 5400.000     -94.901975 
2500.000 5500.000     -95.497110 
2500.000 5600.000     -96.113206 
2500.000 5700.000     -96.696598 
2500.000 5800.000     -97.199009 
2500.000 5900.000     -97.581172 
2500.000 6000.000     -97.813111 
2500.000 6100.000     -97.872358 
2500.000 6200.000     -97.741542 
2500.000 6300.000     -97.406157 
2500.000 6400.000     -96.852748 
2500.000 6500.000     -96.067450 
2500.000 6600.000     -95.034776 
2500.000 6700.000     -93.736515 
2500.000 6800.000     -92.150681 
2500.000 6900.000     -90.250532 
2500.000 7000.000     -88.003949 
2500.000 7100.000     -85.374130 
2500.000 7200.000     -82.324172 
2500.000 7300.000     -78.831805 
2500.000 7400.000     -74.924529 
2500.000 7500.000     -70.732014 
2500.000 7600.000     -66.491745 
2500.000 7700.000     -62.441077 
2500.000 7800.000     -58.709295 
2500.000 7900.000     -55.323261 
2500.000 8000.000     -52.259827 
2500.000 8100.000     -49.480990 
2500.000 8200.000     -46.948650 
2500.000 8300.000     -44.629251 
2500.000 8400.000     -42.494537 
2500.000 8500.000     -40.521061 
2500.000 8600.000     -38.689395 
2500.000 8700.000     -36.983366 
2500.000 8800.000     -35.389421 
2500.000 8900.000     -33.896110 
2500.000 9000.000     -32.493680 
2500.000 9100.000     -31.173758 
2500.000 9200.000     -29.929098 
2500.000 9300.000     -28.753387 
2500.000 9400.000     -27.641082 
2500.000 9500.000     -26.587294 
2500.000 9600.000     -25.587677 
2500.000 9700.000     -24.638352 
2500.000 9800.000     -23.735838 
2500.000 9900.000     -22.876996 
2500.000 10000.000     -22.058984 
2500.000 10100.000     -21.279218 
2500.000 10200.000     -20.535341 
2500.000 10300.000     -19.825194 
2500.000 10400.000     -19.146797 
2500.000 10500.000     -18.498322 
2500.000 10600.000     -17.878086 
2500.000 10700.000     -17.284526 
2500.000 10800.000     -16.716195 
2500.000 10900.000     -16.171747 
2500.000 11000.000     -15.649928 
2500.000 11100.000     -15.149567 
2500.000 11200.000     -14.669570 
2500.000 11300.000     -14.208914 
2500.000 11400.000     -13.766639 
2500.000 11500.000     -13.341842 
2500.000 11600.000     -12.933678 
2500.000 11700.000     -12.541351 
2500.000 11800.000     -12.164109 
2500.000 11900.000     -11.801246 
2500.000 12000.000     -11.452095 
2600.000   0.000     -22.812948 
2600.000 100.000     -23.653541 
2600.000 200.000     -24.535937 
2600.000 300.000     -25.463091 
2600.000 400.000     -26.438278 
2600.000 500.000     -27.465133 
2600.000 600.000     -28.547718 
2600.000 700.000     -29.690586 
2600.000 800.000     -30.898874 
2600.000 900.000     -32.178407 
2600.000 1000.000     -33.535828 
2600.000 1100.000     -34.978769 
2600.000 1200.000     -36.516050 
2600.000 1300.000     -38.157945 
2600.000 1400.000     -39.916504 
2600.000 1500.000     -41.805975 
2600.000 1600.000     -43.843317 
2600.000 1700.000     -46.048840 
2600.000 1800.000     -48.446939 
2600.000 1900.000     -51.066822 
2600.000 2000.000     -53.942886 
2600.000 2100.000     -57.113734 
2600.000 2200.000     -60.617196 
2600.000 2300.000     -64.475123 
2600.000 2400.000     -68.657822 
2600.000 2500.000     -73.031576 
2600.000 2600.000     -77.353503 
2600.000 2700.000     -81.380535 
2600.000 2800.000     -84.978391 
2600.000 2900.000     -88.116439 
2600.000 3000.000     -90.815212 
2600.000 3100.000     -93.110843 
2600.000 3200.000     -95.039865 
2600.000 3300.000     -96.634249 
2600.000 3400.000     -97.920457 
2600.000 3500.000     -98.919885 
2600.000 3600.000     -99.649728 
2600.000 3700.000    -100.123952 
2600.000 3800.000    -100.354345 
2600.000 3900.000    -100.351758 
2600.000 4000.000    -100.127743 
2600.000 4100.000     -99.696885 
2600.000 4200.000     -99.080203 
2600.000 4300.000     -98.309677 
2600.000 4400.000     -97.432958 
2600.000 4500.000     -96.515138 
2600.000 4600.000     -95.633352 
2600.000 4700.000     -94.864063 
2600.000 4800.000     -94.270155 
2600.000 4900.000     -93.894885 
2600.000 5000.000     -93.762418 
2600.000 5100.000     -93.880407 
2600.000 5200.000     -94.241206 
2600.000 5300.000     -94.820662 
2600.000 5400.000     -95.575522 
2600.000 5500.000     -96.442912 
2600.000 5600.000     -97.346379 
2600.000 5700.000     -98.208799 
2600.000 5800.000     -98.965088 
2600.000 5900.000     -99.567607 
2600.000 6000.000     -99.984388 
2600.000 6100.000    -100.194425 
2600.000 6200.000    -100.183146 
2600.000 6300.000     -99.939014 
2600.000 6400.000     -99.451194 
2600.000 6500.000     -98.707913 
2600.000 6600.000     -97.695225 
2600.000 6700.000     -96.395952 
2600.000 6800.000     -94.788718 
2600.000 6900.000     -92.847083 
2600.000 7000.000     -90.539098 
2600.000 7100.000     -87.828249 
2600.000 7200.000     -84.678429 
2600.000 7300.000     -81.069128 
2600.000 7400.000     -77.031001 
2600.000 7500.000     -72.698355 
2600.000 7600.000     -68.314282 
2600.000 7700.000     -64.121686 
2600.000 7800.000     -60.254311 
2600.000 7900.000     -56.741871 
2600.000 8000.000     -53.562537 
2600.000 8100.000     -50.678503 
2600.000 8200.000     -48.051183 
2600.000 8300.000     -45.646200 
2600.000 8400.000     -43.434362 
2600.000 8500.000     -41.391289 
2600.000 8600.000     -39.496683 
2600.000 8700.000     -37.733594 
2600.000 8800.000     -36.087783 
2600.000 8900.000     -34.547204 
2600.000 9000.000     -33.101585 
2600.000 9100.000     -31.742104 
2600.000 9200.000     -30.461128 
2600.000 9300.000     -29.252005 
2600.000 9400.000     -28.108902 
2600.000 9500.000     -27.026669 
2600.000 9600.000     -26.000739 
2600.000 9700.000     -25.027034 
2600.000 9800.000     -24.101897 
2600.000 9900.000     -23.222036 
2600.000 10000.000     -22.384470 
2600.000 10100.000     -21.586491 
2600.000 10200.000     -20.825633 
2600.000 10300.000     -20.099638 
2600.000 10400.000     -19.406434 
2600.000 10500.000     -18.744115 
2600.000 10600.000     -18.110920 
2600.000 10700.000     -17.505224 
2600.000 10800.000     -16.925516 
2600.000 10900.000     -16.370395 
2600.000 11000.000     -15.838556 
2600.000 11100.000     -15.328782 
2600.000 11200.000     -14.839936 
2600.000 11300.000     -14.370954 
2600.000 11400.000     -13.920841 
2600.000 11500.000     -13.488662 
2600.000 11600.000     -13.073538 
2600.000 11700.000     -12.674647 
2600.000 11800.000     -12.291210 
2600.000 11900.000     -11.922496 
2600.000 12000.000     -11.567817 
2700.000   0.000     -23.156427 
2700.000 100.000     -24.016412 
2700.000 200.000     -24.919564 
2700.000 300.000     -25.868964 
2700.000 400.000     -26.868025 
2700.000 500.000     -27.920542 
2700.000 600.000     -29.030751 
2700.000 700.000     -30.203407 
2700.000 800.000     -31.443873 
2700.000 900.000     -32.758230 
2700.000 1000.000     -34.153412 
2700.000 1100.000     -35.637381 
2700.000 1200.000     -37.219332 
2700.000 1300.000     -38.909960 
2700.000 1400.000     -40.721793 
2700.000 1500.000     -42.669602 
2700.000 1600.000     -44.770920 
2700.000 1700.000     -47.046656 
2700.000 1800.000     -49.521799 
2700.000 1900.000     -52.226076 
2700.000 2000.000     -55.194223 
2700.000 2100.000     -58.464836 
2700.000 2200.000     -62.075164 
2700.000 2300.000     -66.045676 
2700.000 2400.000     -70.344324 
2700.000 2500.000     -74.834095 
2700.000 2600.000     -79.268205 
2700.000 2700.000     -83.399618 
2700.000 2800.000     -87.090560 
2700.000 2900.000     -90.307700 
2700.000 3000.000     -93.069687 
2700.000 3100.000     -95.411394 
2700.000 3200.000     -97.368446 
2700.000 3300.000     -98.971994 
2700.000 3400.000    -100.247533 
2700.000 3500.000    -101.215162 
2700.000 3600.000    -101.890270 
2700.000 3700.000    -102.284331 
2700.000 3800.000    -102.405779 
2700.000 3900.000    -102.261074 
2700.000 4000.000    -101.856255 
2700.000 4100.000    -101.199535 
2700.000 4200.000    -100.305866 
2700.000 4300.000     -99.204671 
2700.000 4400.000     -97.950815 
2700.000 4500.000     -96.633449 
2700.000 4600.000     -95.369409 
2700.000 4700.000     -94.275547 
2700.000 4800.000     -93.440895 
2700.000 4900.000     -92.919483 
2700.000 5000.000     -92.737954 
2700.000 5100.000     -92.904112 
2700.000 5200.000     -93.410161 
2700.000 5300.000     -94.229466 
2700.000 5400.000     -95.308004 
2700.000 5500.000     -96.556753 
2700.000 5600.000     -97.858869 
2700.000 5700.000     -99.097527 
2700.000 5800.000    -100.183585 
2700.000 5900.000    -101.062189 
2700.000 6000.000    -101.703929 
2700.000 6100.000    -102.093867 
2700.000 6200.000    -102.223803 
2700.000 6300.000    -102.087712 
2700.000 6400.000    -101.679153 
2700.000 6500.000    -100.989709 
2700.000 6600.000    -100.007924 
2700.000 6700.000     -98.718430 
2700.000 6800.000     -97.101150 
2700.000 6900.000     -95.130610 
2700.000 7000.000     -92.775685 
2700.000 7100.000     -90.000772 
2700.000 7200.000     -86.771024 
2700.000 7300.000     -83.067820 
2700.000 7400.000     -78.924517 
2700.000 7500.000     -74.478914 
2700.000 7600.000     -69.978077 
2700.000 7700.000     -65.668817 
2700.000 7800.000     -61.688172 
2700.000 7900.000     -58.068216 
2700.000 8000.000     -54.788509 
2700.000 8100.000     -51.811822 
2700.000 8200.000     -49.099583 
2700.000 8300.000     -46.617080 
2700.000 8400.000     -44.334600 
2700.000 8500.000     -42.227174 
2700.000 8600.000     -40.273907 
2700.000 8700.000     -38.457276 
2700.000 8800.000     -36.762519 
2700.000 8900.000     -35.177115 
2700.000 9000.000     -33.690370 
2700.000 9100.000     -32.293087 
2700.000 9200.000     -30.977304 
2700.000 9300.000     -29.736075 
2700.000 9400.000     -28.563311 
2700.000 9500.000     -27.453635 
2700.000 9600.000     -26.402276 
2700.000 9700.000     -25.404978 
2700.000 9800.000     -24.457925 
2700.000 9900.000     -23.557681 
2700.000 10000.000     -22.701138 
2700.000 10100.000     -21.885473 
2700.000 10200.000     -21.108115 
2700.000 10300.000     -20.366714 
2700.000 10400.000     -19.659112 
2700.000 10500.000     -18.983326 
2700.000 10600.000     -18.337526 
2700.000 10700.000     -17.720020 
2700.000 10800.000     -17.129242 
2700.000 10900.000     -16.563736 
2700.000 11000.000     -16.022146 
2700.000 11100.000     -15.503212 
2700.000 11200.000     -15.005755 
2700.000 11300.000     -14.528673 
2700.000 11400.000     -14.070934 
2700.000 11500.000     -13.631572 
2700.000 11600.000     -13.209679 
2700.000 11700.000     -12.804402 
2700.000 11800.000     -12.414939 
2700.000 11900.000     -12.040536 
2700.000 12000.000     -11.680480 
2800.000   0.000     -23.492436 
2800.000 100.000     -24.371234 
2800.000 200.000     -25.294494 
2800.000 300.000     -26.265413 
2800.000 400.000     -27.287529 
2800.000 500.000     -28.364778 
2800.000 600.000     -29.501555 
2800.000 700.000     -30.702790 
2800.000 800.000     -31.974042 
2800.000 900.000     -33.321612 
2800.000 1000.000     -34.752682 
2800.000 1100.000     -36.275486 
2800.000 1200.000     -37.899522 
2800.000 1300.000     -39.635821 
2800.000 1400.000     -41.497270 
2800.000 1500.000     -43.499026 
2800.000 1600.000     -45.659016 
2800.000 1700.000     -47.998534 
2800.000 1800.000     -50.542898 
2800.000 1900.000     -53.322062 
2800.000 2000.000     -56.370786 
2800.000 2100.000     -59.727380 
2800.000 2200.000     -63.428363 
2800.000 2300.000     -67.492901 
2800.000 2400.000     -71.887016 
2800.000 2500.000     -76.471191 
2800.000 2600.000     -80.995767 
2800.000 2700.000     -85.210757 
2800.000 2800.000     -88.975667 
2800.000 2900.000     -92.254862 
2800.000 3000.000     -95.065141 
2800.000 3100.000     -97.439887 
2800.000 3200.000     -99.413442 
2800.000 3300.000    -101.015671 
2800.000 3400.000    -102.270594 
2800.000 3500.000    -103.196435 
2800.000 3600.000    -103.806085 
2800.000 3700.000    -104.107629 
2800.000 3800.000    -104.104870 
2800.000 3900.000    -103.797946 
2800.000 4000.000    -103.184334 
2800.000 4100.000    -102.260970 
2800.000 4200.000    -101.029111 
2800.000 4300.000     -99.505400 
2800.000 4400.000     -97.744059 
2800.000 4500.000     -95.866569 
2800.000 4600.000     -94.061623 
2800.000 4700.000     -92.518882 
2800.000 4800.000     -91.362648 
2800.000 4900.000     -90.651525 
2800.000 5000.000     -90.407313 
2800.000 5100.000     -90.635201 
2800.000 5200.000     -91.330008 
2800.000 5300.000     -92.469941 
2800.000 5400.000     -93.996403 
2800.000 5500.000     -95.785100 
2800.000 5600.000     -97.646381 
2800.000 5700.000     -99.391562 
2800.000 5800.000    -100.899171 
2800.000 5900.000    -102.114999 
2800.000 6000.000    -103.022416 
2800.000 6100.000    -103.620175 
2800.000 6200.000    -103.911358 
2800.000 6300.000    -103.898502 
2800.000 6400.000    -103.581487 
2800.000 6500.000    -102.956530 
2800.000 6600.000    -102.015565 
2800.000 6700.000    -100.745724 
2800.000 6800.000     -99.128805 
2800.000 6900.000     -97.140813 
2800.000 7000.000     -94.751908 
2800.000 7100.000     -91.927778 
2800.000 7200.000     -88.635065 
2800.000 7300.000     -84.857000 
2800.000 7400.000     -80.629248 
2800.000 7500.000     -76.092335 
2800.000 7600.000     -71.496275 
2800.000 7700.000     -67.090761 
2800.000 7800.000     -63.015339 
2800.000 7900.000     -59.304016 
2800.000 8000.000     -55.937657 
2800.000 8100.000     -52.879768 
2800.000 8200.000     -50.092067 
2800.000 8300.000     -47.539816 
2800.000 8400.000     -45.193085 
2800.000 8500.000     -43.026574 
2800.000 8600.000     -41.019005 
2800.000 8700.000     -39.152465 
2800.000 8800.000     -37.411808 
2800.000 8900.000     -35.784151 
2800.000 9000.000     -34.258468 
2800.000 9100.000     -32.825259 
2800.000 9200.000     -31.476286 
2800.000 9300.000     -30.204359 
2800.000 9400.000     -29.003165 
2800.000 9500.000     -27.867130 
2800.000 9600.000     -26.791305 
2800.000 9700.000     -25.771273 
2800.000 9800.000     -24.803074 
2800.000 9900.000     -23.883143 
2800.000 10000.000     -23.008254 
2800.000 10100.000     -22.175478 
2800.000 10200.000     -21.382149 
2800.000 10300.000     -20.625826 
2800.000 10400.000     -19.904274 
2800.000 10500.000     -19.215437 
2800.000 10600.000     -18.557417 
2800.000 10700.000     -17.928463 
2800.000 10800.000     -17.326951 
2800.000 10900.000     -16.751374 
2800.000 11000.000     -16.200330 
2800.000 11100.000     -15.672514 
2800.000 11200.000     -15.166706 
2800.000 11300.000     -14.681769 
2800.000 11400.000     -14.216637 
2800.000 11500.000     -13.770311 
2800.000 11600.000     -13.341855 
2800.000 11700.000     -12.930389 
2800.000 11800.000     -12.535085 
2800.000 11900.000     -12.155166 
2800.000 12000.000     -11.789899 
2900.000   0.000     -23.820459 
2900.000 100.000     -24.717449 
2900.000 200.000     -25.660125 
2900.000 300.000     -26.651785 
2900.000 400.000     -27.696083 
2900.000 500.000     -28.797076 
2900.000 600.000     -29.959300 
2900.000 700.000     -31.187835 
2900.000 800.000     -32.488409 
2900.000 900.000     -33.867508 
2900.000 1000.000     -35.332515 
2900.000 1100.000     -36.891885 
2900.000 1200.000     -38.555356 
2900.000 1300.000     -40.334209 
2900.000 1400.000     -42.241597 
2900.000 1500.000     -44.292941 
2900.000 1600.000     -46.506421 
2900.000 1700.000     -48.903543 
2900.000 1800.000     -51.509770 
2900.000 1900.000     -54.355077 
2900.000 2000.000     -57.474061 
2900.000 2100.000     -60.904607 
2900.000 2200.000     -64.682467 
2900.000 2300.000     -68.825638 
2900.000 2400.000     -73.298547 
2900.000 2500.000     -77.959715 
2900.000 2600.000     -82.557273 
2900.000 2700.000     -86.838950 
2900.000 2800.000     -90.662059 
2900.000 2900.000     -93.988974 
2900.000 3000.000     -96.834740 
2900.000 3100.000     -99.231166 
2900.000 3200.000    -101.211091 
2900.000 3300.000    -102.802797 
2900.000 3400.000    -104.028467 
2900.000 3500.000    -104.904018 
2900.000 3600.000    -105.439303 
2900.000 3700.000    -105.638287 
2900.000 3800.000    -105.499067 
2900.000 3900.000    -105.013733 
2900.000 4000.000    -104.168249 
2900.000 4100.000    -102.942958 
2900.000 4200.000    -101.315663 
2900.000 4300.000     -99.273296 
2900.000 4400.000     -96.848100 
2900.000 4500.000     -94.195840 
2900.000 4600.000     -91.636832 
2900.000 4700.000     -89.493525 
2900.000 4800.000     -87.928192 
2900.000 4900.000     -86.984191 
2900.000 5000.000     -86.664383 
2900.000 5100.000     -86.966851 
2900.000 5200.000     -87.893518 
2900.000 5300.000     -89.441530 
2900.000 5400.000     -91.567537 
2900.000 5500.000     -94.109275 
2900.000 5600.000     -96.744299 
2900.000 5700.000     -99.152306 
2900.000 5800.000    -101.177539 
2900.000 5900.000    -102.787767 
2900.000 6000.000    -103.996069 
2900.000 6100.000    -104.824657 
2900.000 6200.000    -105.293204 
2900.000 6300.000    -105.415762 
2900.000 6400.000    -105.200257 
2900.000 6500.000    -104.648616 
2900.000 6600.000    -103.756893 
2900.000 6700.000    -102.515260 
2900.000 6800.000    -100.907824 
2900.000 6900.000     -98.912429 
2900.000 7000.000     -96.500821 
2900.000 7100.000     -93.640194 
2900.000 7200.000     -90.298765 
2900.000 7300.000     -86.461526 
2900.000 7400.000     -82.166134 
2900.000 7500.000     -77.555310 
2900.000 7600.000     -72.881360 
2900.000 7700.000     -68.396187 
2900.000 7800.000     -64.241306 
2900.000 7900.000     -60.452322 
2900.000 8000.000     -57.011272 
2900.000 8100.000     -53.882434 
2900.000 8200.000     -51.027954 
2900.000 8300.000     -48.413262 
2900.000 8400.000     -46.008409 
2900.000 8500.000     -43.787953 
2900.000 8600.000     -41.730407 
2900.000 8700.000     -39.817608 
2900.000 8800.000     -38.034145 
2900.000 8900.000     -36.366874 
2900.000 9000.000     -34.804516 
2900.000 9100.000     -33.337334 
2900.000 9200.000     -31.956867 
2900.000 9300.000     -30.655723 
2900.000 9400.000     -29.427402 
2900.000 9500.000     -28.266161 
2900.000 9600.000     -27.166895 
2900.000 9700.000     -26.125047 
2900.000 9800.000     -25.136529 
2900.000 9900.000     -24.197659 
2900.000 10000.000     -23.305104 
2900.000 10100.000     -22.455839 
2900.000 10200.000     -21.647108 
2900.000 10300.000     -20.876390 
2900.000 10400.000     -20.141375 
2900.000 10500.000     -19.439937 
2900.000 10600.000     -18.770117 
2900.000 10700.000     -18.130105 
2900.000 10800.000     -17.518224 
2900.000 10900.000     -16.932919 
2900.000 11000.000     -16.372741 
2900.000 11100.000     -15.836344 
2900.000 11200.000     -15.322471 
2900.000 11300.000     -14.829946 
2900.000 11400.000     -14.357673 
2900.000 11500.000     -13.904620 
2900.000 11600.000     -13.469825 
2900.000 11700.000     -13.052380 
2900.000 11800.000     -12.651435 
2900.000 11900.000     -12.266190 
2900.000 12000.000     -11.895890 
3000.000   0.000     -24.140021 
3000.000 100.000     -25.054549 
3000.000 200.000     -26.015911 
3000.000 300.000     -27.027497 
3000.000 400.000     -28.093059 
3000.000 500.000     -29.216765 
3000.000 600.000     -30.403266 
3000.000 700.000     -31.657776 
3000.000 800.000     -32.986160 
3000.000 900.000     -34.395055 
3000.000 1000.000     -35.892009 
3000.000 1100.000     -37.485647 
3000.000 1200.000     -39.185887 
3000.000 1300.000     -41.004194 
3000.000 1400.000     -42.953901 
3000.000 1500.000     -45.050599 
3000.000 1600.000     -47.312604 
3000.000 1700.000     -49.761512 
3000.000 1800.000     -52.422798 
3000.000 1900.000     -55.326328 
3000.000 2000.000     -58.506428 
3000.000 2100.000     -62.000499 
3000.000 2200.000     -65.843549 
3000.000 2300.000     -70.052536 
3000.000 2400.000     -74.590560 
3000.000 2500.000     -79.314560 
3000.000 2600.000     -83.970906 
3000.000 2700.000     -88.305490 
3000.000 2800.000     -92.173804 
3000.000 2900.000     -95.536487 
3000.000 3000.000     -98.406943 
3000.000 3100.000    -100.815403 
3000.000 3200.000    -102.793102 
3000.000 3300.000    -104.366575 
3000.000 3400.000    -105.555950 
3000.000 3500.000    -106.374571 
3000.000 3600.000    -106.828927 
3000.000 3700.000    -106.918419 
3000.000 3800.000    -106.634782 
3000.000 3900.000    -105.960997 
3000.000 4000.000    -104.869622 
3000.000 4100.000    -103.320739 
3000.000 4200.000    -101.261096 
3000.000 4300.000     -98.631986 
3000.000 4400.000     -95.416025 
3000.000 4500.000     -91.792145 
3000.000 4600.000     -88.283100 
3000.000 4700.000     -85.415086 
3000.000 4800.000     -83.377671 
3000.000 4900.000     -82.172244 
3000.000 5000.000     -81.768616 
3000.000 5100.000     -82.153818 
3000.000 5200.000     -83.340825 
3000.000 5300.000     -85.359833 
3000.000 5400.000     -88.209457 
3000.000 5500.000     -91.700137 
3000.000 5600.000     -95.305684 
3000.000 5700.000     -98.503354 
3000.000 5800.000    -101.114222 
3000.000 5900.000    -103.155686 
3000.000 6000.000    -104.686465 
3000.000 6100.000    -105.759822 
3000.000 6200.000    -106.415693 
3000.000 6300.000    -106.681537 
3000.000 6400.000    -106.574392 
3000.000 6500.000    -106.102544 
3000.000 6600.000    -105.266615 
3000.000 6700.000    -104.060143 
3000.000 6800.000    -102.469809 
3000.000 6900.000    -100.475516 
3000.000 7000.000     -98.050759 
3000.000 7100.000     -95.164337 
3000.000 7200.000     -91.786052 
3000.000 7300.000     -87.902538 
3000.000 7400.000     -83.553193 
3000.000 7500.000     -78.882562 
3000.000 7600.000     -74.144792 
3000.000 7700.000     -69.593552 
3000.000 7800.000     -65.371944 
3000.000 7900.000     -61.516905 
3000.000 8000.000     -58.011513 
3000.000 8100.000     -54.820797 
3000.000 8200.000     -51.907392 
3000.000 8300.000     -49.237002 
3000.000 8400.000     -46.779790 
3000.000 8500.000     -44.510308 
3000.000 8600.000     -42.406981 
3000.000 8700.000     -40.451509 
3000.000 8800.000     -38.628318 
3000.000 8900.000     -36.924084 
3000.000 9000.000     -35.327344 
3000.000 9100.000     -33.828181 
3000.000 9200.000     -32.417964 
3000.000 9300.000     -31.089135 
3000.000 9400.000     -29.835042 
3000.000 9500.000     -28.649798 
3000.000 9600.000     -27.528168 
3000.000 9700.000     -26.465472 
3000.000 9800.000     -25.457509 
3000.000 9900.000     -24.500493 
3000.000 10000.000     -23.590996 
3000.000 10100.000     -22.725905 
3000.000 10200.000     -21.902381 
3000.000 10300.000     -21.117831 
3000.000 10400.000     -20.369872 
3000.000 10500.000     -19.656318 
3000.000 10600.000     -18.975149 
3000.000 10700.000     -18.324500 
3000.000 10800.000     -17.702645 
3000.000 10900.000     -17.107979 
3000.000 11000.000     -16.539014 
3000.000 11100.000     -15.994362 
3000.000 11200.000     -15.472729 
3000.000 11300.000     -14.972905 
3000.000 11400.000     -14.493761 
3000.000 11500.000     -14.034239 
3000.000 11600.000     -13.593345 
3000.000 11700.000     -13.170150 
3000.000 11800.000     -12.763779 
3000.000 11900.000     -12.373409 
3000.000 12000.000     -11.998268 
3100.000   0.000     -24.450695 
3100.000 100.000     -25.382077 
3100.000 200.000     -26.361366 
3100.000 300.000     -27.392030 
3100.000 400.000     -28.477909 
3100.000 500.000     -29.623263 
3100.000 600.000     -30.832845 
3100.000 700.000     -32.111973 
3100.000 800.000     -33.466630 
3100.000 900.000     -34.903572 
3100.000 1000.000     -36.430472 
3100.000 1100.000     -38.056087 
3100.000 1200.000     -39.790463 
3100.000 1300.000     -41.645190 
3100.000 1400.000     -43.633714 
3100.000 1500.000     -45.771714 
3100.000 1600.000     -48.077563 
3100.000 1700.000     -50.572857 
3100.000 1800.000     -53.282988 
3100.000 1900.000     -56.237637 
3100.000 2000.000     -59.470805 
3100.000 2100.000     -63.019392 
3100.000 2200.000     -66.917707 
3100.000 2300.000     -71.181798 
3100.000 2400.000     -75.773639 
3100.000 2500.000     -80.548863 
3100.000 2600.000     -85.252393 
3100.000 2700.000     -89.628603 
3100.000 2800.000     -93.531440 
3100.000 2900.000     -96.920012 
3100.000 3000.000     -99.806204 
3100.000 3100.000    -102.218717 
3100.000 3200.000    -104.187170 
3100.000 3300.000    -105.736293 
3100.000 3400.000    -106.884080 
3100.000 3500.000    -107.641217 
3100.000 3600.000    -108.010735 
3100.000 3700.000    -107.987388 
3100.000 3800.000    -107.556475 
3100.000 3900.000    -106.691800 
3100.000 4000.000    -105.352458 
3100.000 4100.000    -103.478219 
3100.000 4200.000    -100.984738 
3100.000 4300.000     -97.767636 
3100.000 4400.000     -93.759871 
3100.000 4500.000     -89.163521 
3100.000 4600.000     -84.703762 
3100.000 4700.000     -81.110518 
3100.000 4800.000     -78.600643 
3100.000 4900.000     -77.133553 
3100.000 5000.000     -76.646004 
3100.000 5100.000     -77.113970 
3100.000 5200.000     -78.561481 
3100.000 5300.000     -81.051786 
3100.000 5400.000     -84.625476 
3100.000 5500.000     -89.065701 
3100.000 5600.000     -93.642544 
3100.000 5700.000     -97.630837 
3100.000 5800.000    -100.828513 
3100.000 5900.000    -103.302621 
3100.000 6000.000    -105.157554 
3100.000 6100.000    -106.477672 
3100.000 6200.000    -107.323218 
3100.000 6300.000    -107.735118 
3100.000 6400.000    -107.739587 
3100.000 6500.000    -107.351347 
3100.000 6600.000    -106.575671 
3100.000 6700.000    -105.409555 
3100.000 6800.000    -103.842340 
3100.000 6900.000    -101.856068 
3100.000 7000.000     -99.426040 
3100.000 7100.000     -96.522674 
3100.000 7200.000     -93.117308 
3100.000 7300.000     -89.198097 
3100.000 7400.000     -84.805975 
3100.000 7500.000     -80.087036 
3100.000 7600.000     -75.296954 
3100.000 7700.000     -70.690847 
3100.000 7800.000     -66.413127 
3100.000 7900.000     -62.501864 
3100.000 8000.000     -58.941053 
3100.000 8100.000     -55.696427 
3100.000 8200.000     -52.731123 
3100.000 8300.000     -50.011179 
3100.000 8400.000     -47.506948 
3100.000 8500.000     -45.193066 
3100.000 8600.000     -43.047962 
3100.000 8700.000     -41.053287 
3100.000 8800.000     -39.193375 
3100.000 8900.000     -37.454794 
3100.000 9000.000     -35.825957 
3100.000 9100.000     -34.296817 
3100.000 9200.000     -32.858613 
3100.000 9300.000     -31.503660 
3100.000 9400.000     -30.225183 
3100.000 9500.000     -29.017178 
3100.000 9600.000     -27.874298 
3100.000 9700.000     -26.791759 
3100.000 9800.000     -25.765264 
3100.000 9900.000     -24.790933 
3100.000 10000.000     -23.865255 
3100.000 10100.000     -22.985037 
3100.000 10200.000     -22.147367 
3100.000 10300.000     -21.349580 
3100.000 10400.000     -20.589234 
3100.000 10500.000     -19.864078 
3100.000 10600.000     -19.172041 
3100.000 10700.000     -18.511206 
3100.000 10800.000     -17.879797 
3100.000 10900.000     -17.276167 
3100.000 11000.000     -16.698786 
3100.000 11100.000     -16.146228 
3100.000 11200.000     -15.617162 
3100.000 11300.000     -15.110349 
3100.000 11400.000     -14.624626 
3100.000 11500.000     -14.158907 
3100.000 11600.000     -13.712175 
3100.000 11700.000     -13.283473 
3100.000 11800.000     -12.871906 
3100.000 11900.000     -12.476629 
3100.000 12000.000     -12.096852 
3200.000   0.000     -24.752094 
3200.000 100.000     -25.699627 
3200.000 200.000     -26.696062 
3200.000 300.000     -27.744937 
3200.000 400.000     -28.850164 
3200.000 500.000     -30.016084 
3200.000 600.000     -31.247531 
3200.000 700.000     -32.549912 
3200.000 800.000     -33.929298 
3200.000 900.000     -35.392541 
3200.000 1000.000     -36.947409 
3200.000 1100.000     -38.602748 
3200.000 1200.000     -40.368693 
3200.000 1300.000     -42.256911 
3200.000 1400.000     -44.280904 
3200.000 1500.000     -46.456386 
3200.000 1600.000     -48.801717 
3200.000 1700.000     -51.338432 
3200.000 1800.000     -54.091786 
3200.000 1900.000     -57.091226 
3200.000 2000.000     -60.370405 
3200.000 2100.000     -63.965734 
3200.000 2200.000     -67.910880 
3200.000 2300.000     -72.221084 
3200.000 2400.000     -76.857360 
3200.000 2500.000     -81.674237 
3200.000 2600.000     -86.415429 
3200.000 2700.000     -90.824021 
3200.000 2800.000     -94.752630 
3200.000 2900.000     -98.159004 
3200.000 3000.000    -101.053640 
3200.000 3100.000    -103.463790 
3200.000 3200.000    -105.417506 
3200.000 3300.000    -106.937754 
3200.000 3400.000    -108.040434 
3200.000 3500.000    -108.733649 
3200.000 3600.000    -109.017116 
3200.000 3700.000    -108.881212 
3200.000 3800.000    -108.305297 
3200.000 3900.000    -107.254929 
3200.000 4000.000    -105.677515 
3200.000 4100.000    -103.496089 
3200.000 4200.000    -100.602726 
3200.000 4300.000     -96.863235 
3200.000 4400.000     -92.188514 
3200.000 4500.000     -86.814859 
3200.000 4600.000     -81.599008 
3200.000 4700.000     -77.403638 
3200.000 4800.000     -74.483543 
3200.000 4900.000     -72.782865 
3200.000 5000.000     -72.219412 
3200.000 5100.000     -72.762046 
3200.000 5200.000     -74.441908 
3200.000 5300.000     -77.341194 
3200.000 5400.000     -81.515765 
3200.000 5500.000     -86.710832 
3200.000 5600.000     -92.063725 
3200.000 5700.000     -96.717711 
3200.000 5800.000    -100.436502 
3200.000 5900.000    -103.309212 
3200.000 6000.000    -105.470042 
3200.000 6100.000    -107.026932 
3200.000 6200.000    -108.056863 
3200.000 6300.000    -108.612447 
3200.000 6400.000    -108.728146 
3200.000 6500.000    -108.424626 
3200.000 6600.000    -107.711534 
3200.000 6700.000    -106.589184 
3200.000 6800.000    -105.049504 
3200.000 6900.000    -103.076629 
3200.000 7000.000    -100.647631 
3200.000 7100.000     -97.734498 
3200.000 7200.000     -94.310021 
3200.000 7300.000     -90.363746 
3200.000 7400.000     -85.937975 
3200.000 7500.000     -81.180137 
3200.000 7600.000     -76.347198 
3200.000 7700.000     -71.695493 
3200.000 7800.000     -67.370544 
3200.000 7900.000     -63.411387 
3200.000 8000.000     -59.802831 
3200.000 8100.000     -56.511257 
3200.000 8200.000     -53.500296 
3200.000 8300.000     -50.736342 
3200.000 8400.000     -48.189984 
3200.000 8500.000     -45.836002 
3200.000 8600.000     -43.652893 
